# This PCD file was generated using the MATLAB® pcwrite function
# from Computer Vision Toolbox®.
# .PCD v.7 - Point Cloud Data file format
VERSION .7
FIELDS x y z
SIZE 4 4 4
TYPE F F F
COUNT 1 1 1
WIDTH 1599
HEIGHT 1
VIEWPOINT 0 0 0 1 0 0 0
POINTS 1599
DATA ascii
2.677236 -11.605659 -1.523720
2.573340 -11.832241 -1.549100
2.465947 -12.066528 -1.575593
2.140976 -15.330867 -1.980331
1.946777 -15.345798 -1.978942
1.558604 -15.370542 -1.976456
1.364541 -15.380356 -1.975358
0.976660 -15.394912 -1.973450
0.589687 -15.419155 -1.974035
0.412402 -16.069883 -2.056518
0.212236 -16.209398 -2.073865
0.008516 -16.210161 -2.073785
-0.398369 -16.187431 -2.071503
-0.599258 -16.114000 -2.062910
-1.208145 -16.106264 -2.066284
-1.609766 -16.043295 -2.062744
-2.008174 -15.963933 -2.058379
-2.595771 -15.799963 -2.048405
-2.975449 -15.642727 -2.037074
-3.366533 -15.558076 -2.036426
-3.565508 -15.530873 -2.038571
-4.162969 -15.439763 -2.045766
-4.362324 -15.406199 -2.048420
-4.761270 -15.334235 -2.054116
-5.160684 -15.255783 -2.060332
-5.360586 -15.214082 -2.063638
-5.560596 -15.170761 -2.067074
-5.760674 -15.125766 -2.070644
-6.161328 -15.030768 -2.078186
-6.562529 -14.929023 -2.086267
-6.763340 -14.875590 -2.090513
-7.366719 -14.704928 -2.104082
-7.568144 -14.644563 -2.108884
-7.971504 -14.518476 -2.118916
-8.375566 -14.385221 -2.129522
-8.577842 -14.315864 -2.135044
-8.780283 -14.244679 -2.140712
-9.185781 -14.096706 -2.152498
-9.388789 -14.019902 -2.158616
-9.592011 -13.941198 -2.164886
-9.795410 -13.860580 -2.171310
-10.388310 -13.582839 -2.187626
-10.581709 -13.481211 -2.192499
-10.801689 -13.410998 -2.202984
-11.244247 -13.263838 -2.224540
-11.465586 -13.185392 -2.235372
-12.246025 -12.730322 -2.259805
-12.621191 -12.477029 -2.270445
-12.807617 -12.346994 -2.275891
-13.178193 -12.080263 -2.287065
-13.362372 -11.943547 -2.292792
-14.268389 -11.224497 -2.322489
-14.447139 -11.074080 -2.328748
-14.624599 -10.921110 -2.335047
-14.977353 -10.608911 -2.348047
-15.152372 -10.449465 -2.354716
-15.328017 -10.288789 -2.361731
-15.658505 -9.949133 -2.373369
-15.906552 -9.554291 -2.373812
-16.093760 -9.393589 -2.383948
-16.247890 -9.211778 -2.389440
-16.868242 -8.209428 -2.399970
-16.971251 -7.997382 -2.400134
-17.068506 -7.782597 -2.399865
-17.162968 -7.566656 -2.399594
-17.254726 -7.349555 -2.399322
-17.343769 -7.131342 -2.399048
-17.672022 -6.248041 -2.397940
-17.819239 -5.800607 -2.397380
-17.888641 -5.575591 -2.397098
-17.955185 -5.349744 -2.396815
-18.018847 -5.123097 -2.396530
-18.137598 -4.667557 -2.395960
-18.192568 -4.438742 -2.395673
-18.294014 -3.979200 -2.395097
-18.383789 -3.517383 -2.394519
-18.496582 -2.820981 -2.393646
-18.528280 -2.587999 -2.393354
-18.557041 -2.354687 -2.393062
-18.582899 -2.121059 -2.392770
-18.605829 -1.887171 -2.392477
-18.681356 -0.479949 -2.390715
-18.683622 -0.245118 -2.390421
-18.682930 -0.010328 -2.390127
-18.679277 0.224399 -2.389833
-18.663164 0.693568 -2.389246
-18.650673 0.927915 -2.388953
-18.616913 1.395975 -2.388367
-18.595615 1.629596 -2.388075
-18.571436 1.862902 -2.387783
-17.937344 2.255900 -2.312823
-17.302870 2.397329 -2.234721
-17.193974 3.046659 -2.233909
-17.060760 3.691203 -2.233103
-17.011024 3.904827 -2.232836
-16.958544 4.117791 -2.232570
-16.656708 5.171418 -2.231253
-17.036493 7.488395 -2.380750
-16.523584 8.538619 -2.379439
-16.066826 9.354065 -2.378421
-15.823369 9.752802 -2.377923
-15.570087 10.145281 -2.377433
-5.499580 3.682719 -0.846743
-5.497500 3.782241 -0.853674
-15.034668 10.910368 -2.376479
-14.894912 11.097324 -2.376245
-14.608516 11.465922 -2.375786
-14.313027 11.827170 -2.375335
-14.161943 12.004968 -2.375114
-14.008711 12.180847 -2.374894
-13.695703 12.526765 -2.374463
-13.374228 12.864682 -2.374042
-13.210322 13.030607 -2.373835
-13.044423 13.194433 -2.373631
-12.876513 13.356169 -2.373430
-12.534717 13.673262 -2.373035
-12.360908 13.828552 -2.372841
-11.828086 14.281213 -2.372278
-11.646835 14.427614 -2.372096
-11.463759 14.571709 -2.371916
-11.092353 14.853003 -2.371566
-10.714052 15.124905 -2.371228
-10.134306 15.514797 -2.370743
-9.937890 15.639894 -2.370588
-9.137177 16.115431 -2.369997
-8.912432 16.189743 -2.364269
-8.650713 16.192709 -2.348639
-8.392392 16.195570 -2.333571
-7.389893 16.206024 -2.278631
-6.431064 16.215832 -2.231699
-6.200058 16.225464 -2.222127
-5.983008 16.267599 -2.217425
-5.778281 16.340837 -2.217334
-5.571865 16.411510 -2.217247
-5.365019 16.479591 -2.217163
-5.157353 16.545097 -2.217082
-4.529658 16.726034 -2.216859
-4.318965 16.781130 -2.216791
-4.107666 16.833582 -2.216727
-3.683096 16.930569 -2.216608
-3.470000 16.975105 -2.216554
-2.397060 17.157763 -2.216331
-1.965039 17.212067 -2.216265
-1.531894 17.255598 -2.216214
-1.314893 17.273327 -2.216192
-1.097754 17.288359 -2.216175
0.860342 17.301744 -2.216170
1.294893 17.274950 -2.216206
1.511846 17.257505 -2.216228
2.377207 17.160707 -2.216355
2.807764 17.096178 -2.216438
3.236660 17.020971 -2.216535
3.663564 16.935106 -2.216644
3.876152 16.888170 -2.216704
4.510293 16.731602 -2.216904
4.720371 16.674145 -2.216977
6.180351 16.230219 -2.221797
6.646904 16.217670 -2.242244
6.885293 16.215637 -2.253750
7.615791 16.209028 -2.291124
7.864746 16.206638 -2.304576
8.371738 16.201584 -2.333045
8.891523 16.196131 -2.363699
9.118896 16.126600 -2.370088
9.522490 15.894289 -2.370381
9.920176 15.651989 -2.370687
10.116728 15.527148 -2.370844
10.696992 15.137961 -2.371334
2.752793 3.793612 -0.599635
2.793223 3.749290 -0.598130
11.262363 14.727231 -2.371852
12.519502 13.688437 -2.373159
13.195937 13.046553 -2.373966
13.522021 12.713078 -2.374386
13.839717 12.371496 -2.374815
14.300176 11.844384 -2.375477
14.449238 11.664856 -2.375703
14.596084 11.483481 -2.375931
14.740664 11.300251 -2.376161
14.882919 11.115224 -2.376393
15.160556 10.739836 -2.376865
15.428828 10.357570 -2.377345
15.559316 10.163916 -2.377588
15.687422 9.968616 -2.377833
15.813066 9.771726 -2.378080
15.936298 9.573242 -2.378330
16.175262 9.171670 -2.378834
16.514765 8.558296 -2.379603
16.728319 8.142360 -2.380125
16.831102 7.932378 -2.380388
17.123936 7.294848 -2.381188
17.392637 6.646539 -2.382001
17.558203 6.208784 -2.382550
11.328759 3.846528 -1.530569
11.509541 3.747276 -1.548505
17.007715 3.924766 -2.233006
17.057743 3.711166 -2.233273
17.105097 3.496958 -2.233542
17.191719 3.066748 -2.234081
17.301357 2.417506 -2.234894
18.570644 1.884479 -2.387969
18.595106 1.651195 -2.388261
18.616659 1.417570 -2.388553
18.663740 0.715171 -2.389433
16.548544 -0.199616 -2.390566
16.546534 -0.407586 -2.390826
16.541904 -0.615547 -2.391086
16.534658 -0.823443 -2.391346
16.524794 -1.031269 -2.391606
16.512333 -1.238971 -2.391866
16.479551 -1.653887 -2.392385
16.459248 -1.861033 -2.392645
16.436327 -2.067935 -2.392904
16.410810 -2.274561 -2.393162
16.382734 -2.480864 -2.393420
16.352001 -2.686830 -2.393678
16.318739 -2.892396 -2.393935
16.282831 -3.097563 -2.394191
16.244375 -3.302286 -2.394447
16.203300 -3.506509 -2.394703
15.903213 -4.720075 -2.396220
15.844296 -4.920041 -2.396470
15.782842 -5.119287 -2.396719
15.652480 -5.515429 -2.397214
15.201787 -6.682858 -2.398673
15.032041 -7.064162 -2.399149
14.943574 -7.253213 -2.399385
14.759267 -7.627944 -2.399853
14.663847 -7.813551 -2.400085
13.041698 -8.498742 -2.248533
12.935048 -8.662748 -2.248738
12.826318 -8.825398 -2.248941
12.715576 -8.986678 -2.249142
12.602763 -9.146563 -2.249342
12.487920 -9.305023 -2.249539
12.252255 -9.617574 -2.249929
11.612031 -9.844385 -2.198967
11.321172 -9.844949 -2.167145
11.038545 -9.845492 -2.136559
10.763779 -9.846020 -2.107157
10.496377 -9.846536 -2.078873
9.735107 -9.847998 -2.000242
9.491123 -9.845673 -1.975385
9.255576 -9.845980 -1.951957
8.800644 -9.846573 -1.907612
8.336905 -9.813288 -1.859975
8.122314 -9.807835 -1.839449
7.912324 -9.802494 -1.819654
7.499990 -9.784934 -1.780835
7.299023 -9.774692 -1.762139
6.728486 -9.757214 -1.712023
6.373232 -9.757972 -1.683512
5.881416 -9.792295 -1.649988
5.728818 -9.815540 -1.641643
5.279687 -9.883945 -1.618623
5.145400 -9.930822 -1.615590
4.485488 -10.174848 -1.606205
4.361680 -10.240784 -1.607832
4.237617 -10.306860 -1.609720
3.623828 -10.675542 -1.628473
3.503799 -10.764401 -1.635183
3.382715 -10.854001 -1.642206
2.909248 -11.306250 -1.686356
2.789697 -11.435124 -1.700215
2.677197 -11.605493 -1.720407
2.278506 -13.778291 -2.017268
2.140840 -14.039597 -2.051420
1.963008 -14.056528 -2.050127
1.607295 -14.085288 -2.047782
1.251592 -14.107265 -2.045757
1.073769 -14.115712 -2.044865
0.895967 -14.122473 -2.044052
0.540459 -14.131841 -2.042794
0.195127 -14.901626 -2.152679
0.007822 -14.902424 -2.152610
-0.179385 -14.899033 -2.152275
-0.366572 -14.893269 -2.151939
-0.551709 -14.835368 -2.144406
-1.486533 -14.815358 -2.150781
-1.857734 -14.768225 -2.150039
-2.411787 -14.680273 -2.148948
-2.958340 -14.554067 -2.145281
-3.313838 -14.434570 -2.139269
-3.669014 -14.321294 -2.135475
-3.853066 -14.290390 -2.137919
-4.221328 -14.223952 -2.143178
-4.405488 -14.188408 -2.145994
-4.589736 -14.151299 -2.148935
-4.773984 -14.112632 -2.152000
-4.958320 -14.072366 -2.155195
-5.327041 -13.987111 -2.161961
-5.511465 -13.942080 -2.165536
-5.880469 -13.847185 -2.173074
-6.249697 -13.745832 -2.181131
-6.619102 -13.637907 -2.189714
-6.803857 -13.581440 -2.194206
-6.988711 -13.523320 -2.198831
-7.173564 -13.463508 -2.203590
-7.358506 -13.402014 -2.208485
-8.283867 -13.068730 -2.235028
-8.469052 -12.996836 -2.240756
-8.654346 -12.923159 -2.246627
-9.548896 -12.485283 -2.270452
-10.068330 -12.183865 -2.283073
-10.411406 -11.973088 -2.291896
-10.751455 -11.754107 -2.300984
-11.256376 -11.411094 -2.315300
-11.918858 -10.925817 -2.335542
-12.082265 -10.799373 -2.340786
-12.406923 -10.540820 -2.351603
-12.886680 -10.137553 -2.368384
-13.289756 -9.666576 -2.373766
-13.647890 -9.161015 -2.374332
-13.763046 -8.989523 -2.374525
-13.986884 -8.642238 -2.374915
-14.202022 -8.289410 -2.375311
-14.306279 -8.110973 -2.375512
-14.408320 -7.931241 -2.375714
-14.508057 -7.750235 -2.375918
-14.700801 -7.384470 -2.376330
-14.793701 -7.199794 -2.376538
-14.884326 -7.013954 -2.376748
-14.972627 -6.826957 -2.376958
-15.142148 -6.449717 -2.377384
-15.223389 -6.259494 -2.377599
-15.524336 -5.488688 -2.378471
-15.606982 -5.298273 -2.380741
-15.787324 -4.920635 -2.388625
-15.933603 -4.530226 -2.392777
-16.054424 -4.131471 -2.394566
-16.314600 -2.909453 -2.393770
-16.348095 -2.703932 -2.393512
-16.433086 -2.085175 -2.392737
-16.476719 -1.671207 -2.392219
-16.509932 -1.256346 -2.391699
-16.547197 -0.217020 -2.390398
-16.546844 -0.009149 -2.390138
-16.543877 0.198747 -2.389878
-16.519228 0.821868 -2.389098
-16.489765 1.236472 -2.388579
-16.471132 1.443420 -2.388320
-16.449911 1.650095 -2.388062
-16.426123 1.856481 -2.387803
-16.399696 2.062515 -2.387546
-16.223280 2.247746 -2.365783
-15.265459 2.507521 -2.234595
-15.231133 2.698851 -2.234356
-15.194385 2.889734 -2.234117
-15.155253 3.080104 -2.233879
-15.023593 3.647949 -2.233169
-14.181142 3.632679 -2.114515
-14.924062 4.023481 -2.232699
-14.815136 4.396334 -2.232233
-14.757207 4.581669 -2.232002
-14.696933 4.766249 -2.231771
-14.634414 4.950046 -2.231541
-14.502402 5.315140 -2.231085
-14.433007 5.496414 -2.230859
-14.361386 5.676764 -2.230633
-15.260459 6.254996 -2.382304
-15.009356 6.823670 -2.381594
-14.920977 7.011065 -2.381360
-14.641874 7.566232 -2.380667
-14.544248 7.748893 -2.380439
-14.131210 8.466677 -2.379543
-14.022431 8.642768 -2.379323
-13.911445 8.817482 -2.379105
-13.798271 8.990792 -2.378889
-5.491689 3.677432 -0.954683
-13.074931 9.999293 -2.377630
-12.685575 10.482346 -2.377028
-12.138886 11.102846 -2.376254
-11.854199 11.402588 -2.375881
-11.709091 11.549770 -2.375697
-11.413437 11.838559 -2.375338
-11.262910 11.980144 -2.375161
-11.110635 12.119848 -2.374987
-10.956689 12.257617 -2.374816
-10.801035 12.393456 -2.374647
-10.643691 12.527319 -2.374480
-10.161904 12.916926 -2.373995
-9.998154 13.042756 -2.373838
-9.327842 13.525186 -2.373238
-9.156591 13.640505 -2.373095
-8.634501 13.973491 -2.372681
-7.919785 14.386562 -2.372168
-7.370850 14.672629 -2.371813
-7.185517 14.763398 -2.371701
-6.999121 14.851826 -2.371591
-6.811670 14.937942 -2.371485
-5.859004 15.332991 -2.370996
-5.471514 15.474253 -2.370821
-5.080566 15.605793 -2.370658
-4.883887 15.667892 -2.370582
-3.889795 15.941364 -2.370245
-3.689160 15.988591 -2.370187
-3.083770 16.115221 -2.370032
-2.881006 16.152397 -2.369987
-2.677773 16.187038 -2.369945
-2.469912 16.191715 -2.365897
-2.262187 16.192566 -2.361681
-2.055205 16.193344 -2.357842
-1.028359 16.196215 -2.344207
-0.620244 16.196892 -2.341308
-0.416543 16.197130 -2.340400
-0.212910 16.197302 -2.339856
-0.009395 16.197405 -2.339669
1.624199 16.195869 -2.351181
1.829932 16.195374 -2.354260
2.036338 16.194815 -2.357714
2.243281 16.194181 -2.361539
2.659004 16.190283 -2.369971
3.065166 16.118986 -2.370063
3.267500 16.079538 -2.370113
3.670771 15.993086 -2.370224
4.865791 15.673850 -2.370630
5.062559 15.611979 -2.370709
5.258515 15.547666 -2.370790
5.841406 15.340119 -2.371053
6.225556 15.189716 -2.371244
6.416240 15.110915 -2.371344
6.605869 15.029751 -2.371446
6.794502 14.946235 -2.371552
6.982109 14.860332 -2.371660
7.354053 14.681575 -2.371886
8.084072 14.296487 -2.372373
8.441709 14.090332 -2.372633
9.312530 13.536472 -2.373331
9.482450 13.419233 -2.373479
2.752666 3.793440 -0.677017
2.793174 3.749214 -0.675335
10.787148 12.406457 -2.374754
10.942998 12.270818 -2.374924
11.249531 11.993726 -2.375273
11.696259 11.563823 -2.375814
11.841533 11.416816 -2.375998
11.985009 11.268037 -2.376186
12.126640 11.117416 -2.376375
12.674052 10.497519 -2.377154
12.806035 10.338293 -2.377354
12.936025 10.177435 -2.377556
13.313896 9.685176 -2.378174
13.435741 9.517956 -2.378385
13.673115 9.178944 -2.378810
13.788623 9.007233 -2.379026
14.013251 8.659456 -2.379462
14.122177 8.483488 -2.379683
14.228965 8.306113 -2.379906
14.333613 8.127426 -2.380130
14.435996 7.947431 -2.380356
14.536103 7.766143 -2.380584
14.729531 7.399824 -2.381043
14.822793 7.214865 -2.381275
14.913750 7.028716 -2.381509
15.088652 6.653041 -2.381980
15.172578 6.463561 -2.382217
15.254130 6.273028 -2.382457
14.427509 5.513430 -2.231003
14.564453 5.150166 -2.231458
11.329374 3.846738 -1.728258
14.752803 4.599024 -2.232149
14.920312 4.040973 -2.232848
14.971494 3.853577 -2.233083
15.020331 3.665538 -2.233319
15.192001 2.907452 -2.234269
15.263495 2.525308 -2.234747
15.295673 2.333572 -2.234987
16.175957 2.260255 -2.359273
16.425009 1.875573 -2.387968
16.505663 1.048412 -2.389003
16.538837 0.425685 -2.389783
14.830224 -0.738561 -2.391230
14.821230 -0.924953 -2.391464
14.796171 -1.297363 -2.391930
14.780147 -1.483336 -2.392162
14.761767 -1.669102 -2.392395
14.718007 -2.039934 -2.392859
14.634951 -2.593953 -2.393552
14.602578 -2.777917 -2.393782
14.567900 -2.961485 -2.394011
14.530937 -3.144601 -2.394240
14.450078 -3.509437 -2.394696
14.311611 -4.052715 -2.395376
14.095146 -4.768446 -2.396270
14.035419 -4.945638 -2.396492
13.973476 -5.122093 -2.396712
13.909277 -5.297748 -2.396932
13.703476 -5.819809 -2.397584
13.555312 -6.163432 -2.398013
13.477959 -6.333849 -2.398226
13.398477 -6.503286 -2.398438
13.147314 -7.005476 -2.399065
13.059345 -7.170753 -2.399271
12.877187 -7.497945 -2.399680
12.783496 -7.659817 -2.399882
12.588642 -7.979960 -2.400281
11.918906 -8.201032 -2.329905
11.329736 -8.222648 -2.254423
10.983691 -8.621778 -2.248676
10.765204 -8.896440 -2.249018
10.424589 -9.297935 -2.249519
10.307646 -9.428859 -2.249682
10.189092 -9.558327 -2.249843
10.068915 -9.686298 -2.250003
9.947070 -9.812750 -2.250160
8.580751 -9.846841 -2.103348
8.336660 -9.813017 -2.073581
7.912109 -9.802226 -2.028631
7.705146 -9.795131 -2.006966
7.499795 -9.784667 -1.985355
7.298828 -9.774431 -1.964512
7.102002 -9.764399 -1.944403
6.910517 -9.756582 -1.925400
6.549170 -9.757349 -1.892466
6.199775 -9.758098 -1.861794
6.035508 -9.768587 -1.849179
5.728672 -9.815323 -1.830183
5.577559 -9.838344 -1.821266
5.279570 -9.883731 -1.804529
5.012070 -9.978509 -1.798264
4.746797 -10.073851 -1.793374
4.614648 -10.121338 -1.791365
4.361601 -10.240596 -1.792500
4.237539 -10.306669 -1.794604
4.113193 -10.372915 -1.796995
3.988447 -10.439343 -1.799678
3.742871 -10.587214 -1.808379
3.503730 -10.764212 -1.822991
3.382656 -10.853813 -1.830822
3.260498 -10.944201 -1.839011
2.909189 -11.306059 -1.880043
2.573272 -11.831899 -1.949957
2.465879 -12.066164 -1.983300
2.296348 -12.878630 -2.106690
1.969463 -12.915908 -2.104022
1.805986 -12.932117 -2.102803
1.642432 -12.946743 -2.101658
1.478877 -12.959765 -2.100590
1.315283 -12.971191 -2.099596
0.988076 -12.989245 -2.097835
0.824502 -12.995873 -2.097068
0.660879 -13.000925 -2.096376
0.497373 -13.005774 -2.095985
0.352627 -13.741222 -2.213618
-0.165488 -13.743667 -2.213445
-0.338213 -13.741133 -2.213547
-0.509258 -13.694067 -2.206820
-0.856133 -13.723454 -2.214326
-1.028730 -13.714211 -2.214744
-1.201230 -13.703276 -2.215242
-1.373721 -13.690666 -2.215819
-1.546084 -13.676372 -2.216476
-1.890176 -13.639724 -2.217535
-2.061992 -13.618530 -2.218127
-2.405146 -13.571330 -2.219586
-2.918721 -13.488474 -2.222461
-3.597422 -13.342190 -2.225358
-3.763389 -13.291050 -2.224544
-4.268828 -13.161826 -2.228277
-4.439726 -13.124538 -2.231235
-4.610664 -13.085744 -2.234313
-4.781562 -13.045424 -2.237513
-5.123320 -12.960237 -2.244279
-5.635869 -12.820893 -2.255354
-5.805312 -12.768600 -2.258811
-5.972031 -12.708791 -2.261329
-6.304131 -12.583906 -2.266589
-6.634609 -12.451978 -2.272148
-6.799199 -12.383367 -2.275040
-6.963379 -12.312981 -2.278006
-7.290068 -12.166675 -2.284121
-7.452705 -12.090864 -2.287290
-7.614853 -12.013276 -2.290534
-7.776426 -11.933906 -2.293853
-8.097802 -11.769514 -2.300655
-8.257939 -11.685026 -2.304242
-8.417637 -11.598935 -2.307945
-8.734511 -11.420285 -2.315351
-8.891660 -11.328086 -2.319130
-9.048828 -11.234668 -2.323103
-9.205751 -11.140007 -2.327268
-9.361308 -11.042683 -2.331328
-9.670117 -10.842363 -2.339618
-9.823399 -10.739494 -2.343871
-9.976103 -10.634946 -2.348231
-10.128086 -10.528647 -2.352679
-10.276748 -10.417859 -2.356593
-10.725683 -10.082974 -2.370662
-10.864531 -9.959348 -2.373508
-10.989590 -9.822670 -2.373661
-11.112822 -9.684433 -2.373815
-11.234385 -9.544639 -2.373971
-11.354209 -9.403349 -2.374128
-11.815527 -8.823402 -2.374776
-12.247393 -8.220946 -2.375451
-12.350654 -8.066992 -2.375624
-12.648721 -7.597456 -2.376151
-12.928994 -7.116942 -2.376692
-13.191113 -6.626132 -2.377244
-13.274375 -6.460371 -2.377431
-13.434688 -6.125715 -2.377809
-13.511660 -5.956894 -2.377999
-13.659336 -5.616376 -2.378384
-13.928828 -4.924620 -2.379166
-14.050527 -4.573790 -2.379563
-14.316054 -3.684115 -2.380572
-14.406601 -3.323759 -2.380981
-14.448476 -3.142739 -2.381186
-14.488086 -2.961196 -2.381392
-14.525380 -2.779151 -2.381599
-14.560439 -2.596626 -2.381807
-14.593193 -2.413675 -2.382015
-14.623642 -2.230306 -2.382224
-14.651796 -2.046537 -2.382433
-14.722412 -1.493271 -2.383063
-14.772167 -0.937562 -2.383696
-14.793701 -0.566171 -2.384120
-14.800966 -0.380263 -2.384332
-14.808496 -0.008185 -2.384758
-14.808740 0.177903 -2.384970
-14.806669 0.364009 -2.385183
-14.802246 0.550081 -2.385396
-14.795459 0.736111 -2.385608
-14.786366 0.922030 -2.385821
-14.761162 1.293564 -2.386247
-14.705839 1.849484 -2.386884
-14.657255 2.218831 -2.387299
-13.803105 2.267312 -2.252639
-13.663906 2.421154 -2.234712
-13.631074 2.592422 -2.234498
-13.596181 2.763233 -2.234284
-13.519854 3.103433 -2.233859
-13.435048 3.441555 -2.233436
-13.389472 3.609761 -2.233226
-13.341786 3.777380 -2.233016
-13.186269 4.276333 -2.232393
-13.012129 4.768958 -2.231777
-12.950029 4.931652 -2.231574
-12.751484 5.414747 -2.230970
-13.467852 6.122854 -2.382480
-13.224023 6.624358 -2.381854
-13.138613 6.789420 -2.381648
-12.776533 7.438459 -2.380837
-12.583506 7.755884 -2.380441
-12.484023 7.912738 -2.380245
-12.382558 8.068336 -2.380051
-5.483769 3.672139 -1.062820
-5.480498 3.770544 -1.071285
-5.478877 3.871753 -1.080391
-11.957744 8.677510 -2.379291
-11.846836 8.826382 -2.379106
-11.619512 9.119908 -2.378739
-11.264990 9.549225 -2.378204
-11.143271 9.689301 -2.378029
-10.894707 9.964839 -2.377686
-10.243964 10.625556 -2.376863
-10.108974 10.752722 -2.376704
-9.266777 11.479277 -2.375799
-9.121230 11.594106 -2.375657
-8.825947 11.818276 -2.375378
-7.908076 12.445424 -2.374598
-7.750693 12.543174 -2.374477
-7.592051 12.638940 -2.374357
-7.432275 12.732715 -2.374241
-7.109316 12.914243 -2.374016
-5.945518 13.484838 -2.373308
-5.775381 13.557971 -2.373218
-5.432441 13.697826 -2.373044
-5.259697 13.764516 -2.372962
-5.086172 13.829050 -2.372882
-4.736748 13.951626 -2.372731
-4.560889 14.009614 -2.372659
-3.492168 14.311113 -2.372288
-3.311953 14.353559 -2.372236
-2.950078 14.431672 -2.372140
-2.768467 14.467339 -2.372097
-2.586387 14.500722 -2.372056
-2.403955 14.531850 -2.372018
-2.037939 14.587258 -2.371951
-1.670684 14.633517 -2.371895
-1.486670 14.653215 -2.371871
-0.563604 14.717187 -2.371797
-0.378643 14.723063 -2.371790
-0.193643 14.726635 -2.371787
-0.008564 14.727905 -2.371786
0.546562 14.717856 -2.371802
0.731465 14.709889 -2.371813
0.916230 14.699626 -2.371827
1.100908 14.687057 -2.371844
1.285361 14.672180 -2.371864
1.469639 14.655014 -2.371886
1.653721 14.635534 -2.371912
1.837510 14.613779 -2.371940
2.021035 14.589719 -2.371971
2.204219 14.563383 -2.372005
2.387109 14.534762 -2.372042
2.569570 14.503862 -2.372082
3.114599 14.397546 -2.372218
3.475547 14.315349 -2.372323
3.655254 14.270879 -2.372379
4.190849 14.124091 -2.372566
4.368145 14.070727 -2.372634
4.720644 13.957355 -2.372778
4.895781 13.897375 -2.372854
5.243857 13.770885 -2.373014
5.588652 13.635754 -2.373185
6.099326 13.416977 -2.373462
6.267695 13.339828 -2.373560
6.435117 13.260573 -2.373660
6.601523 13.179243 -2.373763
7.094541 12.922832 -2.374086
7.256680 12.833279 -2.374199
7.417754 12.741689 -2.374315
7.893887 12.454956 -2.374676
8.205244 12.253960 -2.374930
8.511553 12.045222 -2.375193
2.752549 3.793273 -0.754755
9.108134 11.605085 -2.375747
9.540800 11.255634 -2.376187
10.096904 10.764849 -2.376805
10.232051 10.637844 -2.376964
10.497598 10.378752 -2.377290
10.756620 10.113111 -2.377624
11.008935 9.841017 -2.377966
11.132587 9.702603 -2.378140
11.254395 9.562659 -2.378316
11.609492 9.133756 -2.378855
11.948242 8.691751 -2.379410
12.164853 8.390070 -2.379789
12.475469 7.927571 -2.380370
12.575097 7.770826 -2.380566
12.672822 7.612813 -2.380765
12.768574 7.453573 -2.380965
12.862305 7.293170 -2.381166
13.043750 6.968832 -2.381573
12.880644 5.108689 -2.231500
12.944961 4.946885 -2.231703
13.007304 4.784262 -2.231907
11.329990 3.846947 -1.926895
13.236142 4.126223 -2.232732
13.338163 3.792992 -2.233150
13.431797 3.457265 -2.233570
13.475459 3.288532 -2.233782
13.593691 2.779094 -2.234420
13.628838 2.608298 -2.234634
13.661855 2.437072 -2.234848
14.710293 1.867306 -2.387968
14.755439 1.497330 -2.388431
14.774531 1.311932 -2.388664
14.827578 0.568169 -2.389595
14.840077 0.195404 -2.390061
13.449668 0.006789 -2.390290
13.447968 -0.331259 -2.390713
13.437793 -0.669214 -2.391136
13.429502 -0.838098 -2.391347
13.419072 -1.006877 -2.391558
13.406562 -1.175519 -2.391769
13.391913 -1.344015 -2.391980
13.356240 -1.680417 -2.392401
13.335234 -1.848287 -2.392611
13.312178 -2.015884 -2.392821
13.259609 -2.350184 -2.393239
13.230175 -2.516845 -2.393447
13.165039 -2.849008 -2.393862
13.051650 -3.344040 -2.394481
13.009755 -3.508089 -2.394686
12.871572 -3.996941 -2.395298
12.769199 -4.319869 -2.395701
12.347480 -5.428071 -2.397086
12.209130 -5.737571 -2.397473
11.987050 -6.195131 -2.398044
11.829433 -6.495427 -2.398419
11.747803 -6.644086 -2.398605
11.664277 -6.791691 -2.398789
11.578916 -6.938267 -2.398972
11.402568 -7.228135 -2.399333
11.311846 -7.371406 -2.399513
11.218965 -7.513513 -2.399690
10.930273 -7.932740 -2.400213
10.706953 -8.189207 -2.395618
10.441397 -8.196114 -2.359069
10.183721 -8.202753 -2.323961
9.933525 -8.209135 -2.290220
9.335586 -8.539664 -2.248563
9.008828 -8.887163 -2.248996
8.783759 -9.111867 -2.249276
8.669082 -9.222093 -2.249414
8.553008 -9.330865 -2.249549
8.435625 -9.438165 -2.249683
8.075274 -9.751087 -2.250072
7.911894 -9.801957 -2.238690
7.704941 -9.794860 -2.214782
7.298623 -9.774164 -2.167932
6.910342 -9.756330 -2.124775
6.549014 -9.757106 -2.088433
6.372920 -9.757487 -2.071207
6.199629 -9.757855 -2.054585
6.035371 -9.768369 -2.040661
5.577441 -9.838124 -2.009866
5.279453 -9.883514 -1.991389
5.145205 -9.930428 -1.987664
4.879131 -10.026047 -1.981627
4.746689 -10.073651 -1.979090
4.485332 -10.174469 -1.976123
4.361523 -10.240408 -1.978125
4.237461 -10.306479 -1.980446
4.113105 -10.372722 -1.983086
3.742812 -10.587027 -1.995653
3.503662 -10.764021 -2.011778
3.026807 -11.179062 -2.058283
2.909141 -11.305864 -2.074739
2.789600 -11.434733 -2.091784
2.677119 -11.605161 -2.116643
2.141250 -12.008740 -2.167863
1.831572 -12.011348 -2.159338
1.525049 -12.021294 -2.153555
1.372500 -12.027785 -2.151456
1.220098 -12.032754 -2.149432
0.915713 -12.038136 -2.145604
0.763623 -12.036684 -2.143466
0.611934 -12.038157 -2.142190
-0.313076 -12.720486 -2.261374
-0.472910 -12.716465 -2.261538
-1.111875 -12.684011 -2.262852
-1.271494 -12.671828 -2.263353
-1.590371 -12.642627 -2.264560
-1.749668 -12.625576 -2.265266
-2.385508 -12.541169 -2.268782
-2.860693 -12.460778 -2.272143
-3.018730 -12.430730 -2.273401
-3.648633 -12.294224 -2.279124
-3.805488 -12.256030 -2.280728
-4.430224 -12.086789 -2.287816
-4.585615 -12.040354 -2.289751
-4.895439 -11.942532 -2.293828
-5.049853 -11.891171 -2.295970
-5.663808 -11.669643 -2.305295
-5.816406 -11.610347 -2.307838
-5.968623 -11.549406 -2.310453
-6.120342 -11.486467 -2.313066
-6.271357 -11.421711 -2.315712
-6.572129 -11.287790 -2.321321
-6.871777 -11.148378 -2.327439
-7.168672 -11.001208 -2.333598
-7.463203 -10.847165 -2.339982
-7.755410 -10.686430 -2.346621
-7.900723 -10.603794 -2.350090
-8.187012 -10.430359 -2.356517
-8.329658 -10.341804 -2.359976
-8.472813 -10.253086 -2.363840
-8.614931 -10.162243 -2.367670
-8.753769 -10.066781 -2.370871
-8.889639 -9.967276 -2.373562
-9.014707 -9.855307 -2.373686
-9.381210 -9.510073 -2.374068
-9.500468 -9.391961 -2.374200
-9.962656 -8.904801 -2.374742
-10.293008 -8.524504 -2.375166
-10.608954 -8.132021 -2.375605
-10.710977 -7.998564 -2.375754
-10.909990 -7.727868 -2.376057
-11.195683 -7.312619 -2.376523
-11.287441 -7.171835 -2.376681
-11.377451 -7.029904 -2.376840
-11.879551 -6.155453 -2.377824
-11.956816 -6.006122 -2.377992
-12.032216 -5.855821 -2.378161
-12.105722 -5.704577 -2.378332
-12.177304 -5.552402 -2.378504
-12.247011 -5.399340 -2.378676
-12.566494 -4.621428 -2.379555
-12.680576 -4.304812 -2.379914
-12.734648 -4.145436 -2.380094
-12.786718 -3.985398 -2.380275
-13.016719 -3.175897 -2.381193
-13.056621 -3.012308 -2.381379
-13.130263 -2.683675 -2.381752
-13.195654 -2.353232 -2.382128
-13.225195 -2.187412 -2.382317
-13.252686 -2.021218 -2.382506
-13.301406 -1.687803 -2.382885
-13.341777 -1.353235 -2.383266
-13.405810 -0.513042 -2.384225
-13.412285 -0.344577 -2.384417
-13.416631 -0.176019 -2.384609
-13.418877 -0.007418 -2.384802
-13.418974 0.161206 -2.384995
-13.412870 0.498453 -2.385381
-13.406631 0.667010 -2.385573
-13.375156 1.172109 -2.386145
-13.360430 1.340185 -2.386332
-13.303525 1.843213 -2.386889
-13.255077 2.177292 -2.387260
-12.321875 2.504260 -2.234616
-12.288398 2.658666 -2.234423
-12.176376 3.119105 -2.233847
-12.135117 3.271590 -2.233657
-11.848232 4.174264 -2.232528
-11.793847 4.322458 -2.232343
-11.737646 4.469956 -2.232159
-11.558018 4.907949 -2.231611
-11.494492 5.052398 -2.231431
-11.429160 5.196013 -2.231252
-11.293213 5.480715 -2.230896
-11.909521 6.154263 -2.382450
-11.830293 6.302952 -2.382264
-11.666377 6.597225 -2.381896
-11.495136 6.887272 -2.381535
-11.406816 7.030644 -2.381356
-5.475850 3.666829 -1.171209
-10.637500 8.135209 -2.379977
-10.533691 8.267673 -2.379812
-10.428251 8.398802 -2.379649
-10.321201 8.528614 -2.379487
-9.990430 8.909761 -2.379012
-9.877031 9.034015 -2.378857
-9.527695 9.398063 -2.378403
-9.165049 9.748683 -2.377966
-8.532372 10.301941 -2.377277
-8.401796 10.407751 -2.377146
-8.269882 10.511930 -2.377016
-8.136689 10.614460 -2.376889
-7.729678 10.911878 -2.376519
-7.311845 11.193806 -2.376168
-7.027588 11.372952 -2.375946
-6.883799 11.459839 -2.375838
-6.593057 11.628181 -2.375628
-5.697051 12.088862 -2.375057
-5.391084 12.227317 -2.374886
-5.236816 12.293684 -2.374803
-4.769307 12.481096 -2.374571
-4.611943 12.539651 -2.374499
-4.453897 12.596235 -2.374429
-3.975625 12.754113 -2.374234
-3.491846 12.893955 -2.374062
-3.166582 12.977070 -2.373960
-2.839355 13.052036 -2.373868
-2.510400 13.118820 -2.373786
-2.345322 13.149123 -2.373749
-2.179863 13.177373 -2.373715
-1.348096 13.287490 -2.373582
-1.013760 13.316970 -2.373547
-0.846299 13.328588 -2.373533
0.160039 13.354309 -2.373507
0.327852 13.351272 -2.373511
0.495605 13.346137 -2.373519
0.663281 13.338906 -2.373529
1.499560 13.271435 -2.373618
1.666260 13.251697 -2.373644
1.832627 13.229876 -2.373672
2.164551 13.180004 -2.373736
2.330049 13.151958 -2.373772
2.824238 13.055469 -2.373896
3.151553 12.980891 -2.373991
3.800185 12.807339 -2.374212
3.960898 12.758908 -2.374274
4.280488 12.656037 -2.374404
4.439326 12.601619 -2.374473
4.597461 12.545212 -2.374545
5.530468 12.165723 -2.375025
5.985810 11.950009 -2.375298
6.284697 11.796782 -2.375491
6.725732 11.553020 -2.375799
6.870693 11.468096 -2.375906
7.014590 11.381392 -2.376015
7.439639 11.110527 -2.376357
7.717256 10.921152 -2.376595
2.752422 3.793102 -0.832893
8.124687 10.624210 -2.376969
8.257939 10.521851 -2.377098
8.389971 10.417817 -2.377229
8.778173 10.095905 -2.377634
9.030186 9.873304 -2.377914
9.154072 9.759645 -2.378057
9.276552 9.644423 -2.378202
9.751816 9.168474 -2.378801
9.866865 9.045797 -2.378955
9.980478 8.921672 -2.379111
10.202871 8.669198 -2.379428
10.418955 8.411204 -2.379752
10.524511 8.280190 -2.379917
10.628496 8.147868 -2.380083
10.730801 8.014233 -2.380251
10.831455 7.879323 -2.380421
10.930342 7.743145 -2.380592
11.027617 7.605734 -2.380764
11.123125 7.467110 -2.380938
11.308906 7.186302 -2.381291
11.399179 7.044148 -2.381469
11.659238 6.611009 -2.382013
11.216514 5.634974 -2.230832
11.489189 5.065923 -2.231546
11.552871 4.921555 -2.231727
11.614707 4.776389 -2.231909
11.843974 4.188165 -2.232646
11.330606 3.847154 -2.126594
12.043467 3.589004 -2.233397
12.088681 3.437668 -2.233587
12.212773 2.980385 -2.234160
12.285898 2.672991 -2.234545
12.319580 2.518616 -2.234739
13.254130 2.192858 -2.387552
13.281757 2.026318 -2.387761
13.307323 1.859424 -2.387970
13.352217 1.524690 -2.388389
13.371494 1.356895 -2.388599
13.388652 1.188875 -2.388810
13.416670 0.852204 -2.389231
13.436230 0.514857 -2.389654
13.447314 0.177070 -2.390076
12.289648 -0.148239 -2.390477
12.284023 -0.457104 -2.390863
12.261045 -0.919982 -2.391443
12.249492 -1.074063 -2.391635
12.236006 -1.228005 -2.391828
12.203242 -1.535355 -2.392213
12.183955 -1.688714 -2.392405
12.162744 -1.841827 -2.392596
12.027871 -2.602921 -2.393548
11.995185 -2.754079 -2.393737
11.924043 -3.055129 -2.394113
11.885644 -3.204976 -2.394301
11.713213 -3.799280 -2.395044
11.511084 -4.384327 -2.395775
11.455937 -4.528974 -2.395956
11.340215 -4.816145 -2.396314
10.950009 -5.659165 -2.397367
10.805869 -5.933395 -2.397710
10.731240 -6.069147 -2.397879
10.654863 -6.203945 -2.398047
10.576817 -6.337797 -2.398215
10.332559 -6.733310 -2.398708
10.161426 -6.991783 -2.399031
9.892705 -7.371248 -2.399504
9.799883 -7.495450 -2.399659
9.705664 -7.618499 -2.399812
9.609550 -7.740344 -2.399965
9.182588 -8.190193 -2.393186
8.960029 -8.196117 -2.361831
8.325108 -8.212630 -2.274488
7.917773 -8.422863 -2.248409
7.595918 -8.716726 -2.248775
7.263125 -8.998227 -2.249125
7.149824 -9.089236 -2.249239
6.803193 -9.353622 -2.249568
6.685449 -9.438818 -2.249674
6.566601 -9.522511 -2.249778
6.446738 -9.604713 -2.249880
5.728418 -9.814889 -2.210323
5.577304 -9.837907 -2.199539
5.279326 -9.883295 -2.179330
5.145098 -9.930230 -2.175255
4.614453 -10.120936 -2.163442
4.485244 -10.174281 -2.162627
4.361445 -10.240214 -2.164818
4.113027 -10.372526 -2.170247
3.742744 -10.586841 -2.183999
3.623633 -10.674978 -2.192615
3.382529 -10.853422 -2.211104
3.142578 -11.054060 -2.235181
2.716689 -11.135964 -2.229435
1.993623 -11.180882 -2.208949
1.707139 -11.195524 -2.202668
1.564268 -11.201367 -2.199775
1.420205 -11.194956 -2.194840
1.135576 -11.198926 -2.189327
0.851807 -11.197576 -2.184188
0.713779 -11.250822 -2.192652
0.588525 -11.577954 -2.254786
0.452412 -11.829922 -2.302567
0.303535 -11.827649 -2.301200
0.154824 -11.825027 -2.300131
-0.290908 -11.819731 -2.299600
-0.439453 -11.815886 -2.299744
-1.033115 -11.785224 -2.300982
-1.477578 -11.746194 -2.302606
-1.773428 -11.712542 -2.304018
-1.921123 -11.693420 -2.304824
-2.216104 -11.650591 -2.306633
-2.363330 -11.626882 -2.307638
-2.510449 -11.601645 -2.308708
-2.803994 -11.546584 -2.311048
-3.242588 -11.452128 -2.314973
-3.388486 -11.417407 -2.316381
-3.679219 -11.343923 -2.319503
-4.401553 -11.134223 -2.328642
-4.830566 -10.988970 -2.334706
-4.972803 -10.937366 -2.336835
-5.114648 -10.884226 -2.339028
-5.256074 -10.829538 -2.341286
-5.397109 -10.773313 -2.343609
-5.537656 -10.715506 -2.345986
-5.817529 -10.595471 -2.350981
-6.642646 -10.193937 -2.366482
-6.910693 -10.044128 -2.371284
-7.043164 -9.966073 -2.373565
-7.656816 -9.506425 -2.374127
-7.893994 -9.311853 -2.374342
-8.010781 -9.212344 -2.374452
-8.240546 -9.008986 -2.374677
-8.353486 -8.905167 -2.374792
-8.465146 -8.799913 -2.374909
-8.684463 -8.585269 -2.375147
-8.792138 -8.475900 -2.375269
-8.898378 -8.365193 -2.375392
-9.106787 -8.139796 -2.375643
-9.208838 -8.025150 -2.375771
-9.309443 -7.909224 -2.375901
-9.408632 -7.792045 -2.376031
-10.060820 -6.938178 -2.376987
-10.147822 -6.811615 -2.377128
-10.479824 -6.294687 -2.377709
-10.558711 -6.162885 -2.377857
-10.636005 -6.030091 -2.378006
-10.928320 -5.489491 -2.378615
-11.193272 -4.934786 -2.379241
-11.255136 -4.794062 -2.379400
-11.373613 -4.510317 -2.379720
-11.430176 -4.367344 -2.379882
-11.484951 -4.223664 -2.380044
-11.537881 -4.079283 -2.380208
-11.775371 -3.347951 -2.381036
-11.817334 -3.199936 -2.381204
-11.857471 -3.051413 -2.381372
-11.932070 -2.752861 -2.381711
-12.085732 -1.998945 -2.382568
-12.110781 -1.847056 -2.382741
-12.133935 -1.694841 -2.382914
-12.155156 -1.542350 -2.383088
-12.207324 -1.083373 -2.383611
-12.220869 -0.929963 -2.383785
-12.255722 -0.314864 -2.384487
-12.261592 -0.006779 -2.384840
-12.259667 0.301398 -2.385186
-12.232568 0.917247 -2.385869
-12.220966 1.070960 -2.386039
-12.191904 1.377928 -2.386379
-12.155166 1.684104 -2.386719
-12.110713 1.989318 -2.387057
-11.844912 2.252714 -2.345087
-11.260468 2.288533 -2.234892
-11.229921 2.429657 -2.234715
-11.197617 2.570372 -2.234540
-11.163564 2.710671 -2.234364
-11.127734 2.850508 -2.234189
-11.090166 2.989875 -2.234015
-11.050879 3.128758 -2.233841
-11.009785 3.267127 -2.233669
-10.967099 3.404934 -2.233496
-10.828466 3.814986 -2.232984
-10.778867 3.950452 -2.232815
-10.674541 4.219444 -2.232478
-10.563594 4.485682 -2.232146
-10.505625 4.617736 -2.231981
-10.445996 4.749028 -2.231817
-10.384727 4.879565 -2.231654
-10.257353 5.138243 -2.231331
-9.983408 5.645512 -2.230697
-10.506904 6.295175 -2.382281
-10.344004 6.556318 -2.381955
-10.260098 6.685340 -2.381794
-5.467891 3.661505 -1.279908
-5.464492 3.759523 -1.290066
-9.908613 7.190478 -2.381164
-9.816846 7.313948 -2.381010
-9.723535 7.436246 -2.380858
-9.628730 7.557369 -2.380707
-9.532372 7.677285 -2.380557
-9.335312 7.913436 -2.380263
-9.234560 8.029619 -2.380118
-9.132363 8.144535 -2.379974
-9.028779 8.258169 -2.379833
-8.923779 8.370461 -2.379693
-8.600478 8.699358 -2.379283
-8.490000 8.806243 -2.379150
-8.378232 8.911736 -2.379018
-8.150713 9.118475 -2.378761
-8.035108 9.219695 -2.378635
-7.800019 9.417728 -2.378388
-7.680713 9.514509 -2.378268
-7.560166 9.609792 -2.378149
-7.438418 9.703565 -2.378033
-7.315586 9.795793 -2.377918
-7.066465 9.975598 -2.377694
-6.555127 10.316206 -2.377271
-6.160879 10.554619 -2.376975
-6.027549 10.630776 -2.376880
-5.893261 10.705256 -2.376788
-5.758037 10.778059 -2.376697
-5.208486 11.052168 -2.376357
-5.069053 11.116377 -2.376278
-4.928789 11.178821 -2.376200
-4.787783 11.239519 -2.376125
-4.646025 11.298450 -2.376052
-4.503516 11.355603 -2.375982
-4.072051 11.516301 -2.375783
-3.926875 11.566264 -2.375721
-3.781152 11.614404 -2.375662
-3.487890 11.705202 -2.375550
-3.340488 11.747842 -2.375497
-3.044092 11.827593 -2.375399
-2.595996 11.933256 -2.375270
-2.445811 11.964748 -2.375231
-1.841445 12.071860 -2.375100
-1.385137 12.132307 -2.375027
-1.232559 12.148657 -2.375008
-1.079824 12.163098 -2.374990
-0.620586 12.194968 -2.374953
-0.467314 12.201756 -2.374946
-0.160527 12.209607 -2.374938
0.146357 12.209792 -2.374939
1.065654 12.164392 -2.375001
1.218437 12.150131 -2.375020
1.371035 12.133969 -2.375041
1.523418 12.115901 -2.375064
1.675586 12.095932 -2.375090
1.827451 12.074064 -2.375118
2.281309 11.997111 -2.375217
2.431934 11.967688 -2.375255
2.582148 11.936384 -2.375295
2.881406 11.868161 -2.375382
3.178838 11.792485 -2.375479
3.326865 11.751867 -2.375530
3.474385 11.709409 -2.375584
3.767725 11.618945 -2.375700
4.203271 11.469589 -2.375889
4.632978 11.304018 -2.376098
4.774824 11.245266 -2.376173
4.915869 11.184743 -2.376249
5.056221 11.122458 -2.376328
5.195752 11.058423 -2.376409
5.472441 10.925127 -2.376578
5.609482 10.855898 -2.376665
5.745674 10.784964 -2.376755
5.880947 10.712324 -2.376846
6.015342 10.638005 -2.376940
6.148818 10.561994 -2.377036
6.281279 10.484315 -2.377134
6.543320 10.324048 -2.377336
6.672822 10.241459 -2.377440
7.055058 9.984050 -2.377764
7.549180 9.618835 -2.378224
7.669824 9.523690 -2.378344
8.024658 9.229263 -2.378715
8.140429 9.128195 -2.378842
8.254912 9.025674 -2.378971
8.480078 8.816366 -2.379234
8.699942 8.601442 -2.379504
8.807871 8.491928 -2.379642
9.019511 8.268886 -2.379923
9.225547 8.040587 -2.380210
9.326446 7.924507 -2.380355
9.523848 7.688594 -2.380652
9.620283 7.568786 -2.380802
9.808730 7.325589 -2.381108
9.900625 7.202221 -2.381263
9.991006 7.077706 -2.381419
10.167089 6.825309 -2.381736
10.419218 6.438583 -2.382222
10.500049 6.307580 -2.382386
10.579199 6.175555 -2.382552
9.977090 5.657282 -2.230797
10.048242 5.531858 -2.230954
10.185556 5.278358 -2.231272
10.251787 5.150310 -2.231433
10.316445 5.021450 -2.231595
10.379501 4.891769 -2.231757
10.440928 4.761305 -2.231921
10.615283 4.365393 -2.232418
10.670107 4.231963 -2.232585
10.723262 4.097863 -2.232753
10.918955 3.555000 -2.233434
11.047734 3.141658 -2.233952
11.087197 3.002826 -2.234126
11.124922 2.863494 -2.234300
11.195136 2.583434 -2.234651
11.227617 2.442738 -2.234828
11.258359 2.301645 -2.235004
12.084912 2.155766 -2.387592
12.112012 2.003902 -2.387782
12.160488 1.699175 -2.388164
12.201299 1.393268 -2.388547
12.218847 1.239926 -2.388739
12.234433 1.086382 -2.388931
12.248115 0.932636 -2.389124
12.259883 0.778724 -2.389317
12.277539 0.470457 -2.389702
12.287480 0.161796 -2.390089
11.307940 0.005706 -2.390279
11.307959 -0.136397 -2.390456
11.302666 -0.420587 -2.390812
11.243867 -1.271337 -2.391877
11.210019 -1.553724 -2.392230
11.169072 -1.835213 -2.392582
11.145937 -1.975555 -2.392758
11.121035 -2.115614 -2.392933
11.094384 -2.255361 -2.393108
10.934873 -2.948597 -2.393974
10.858867 -3.222915 -2.394317
10.775947 -3.495269 -2.394658
10.731943 -3.630661 -2.394827
10.638838 -3.899753 -2.395163
10.376601 -4.561642 -2.395990
10.319131 -4.691983 -2.396153
10.199316 -4.950490 -2.396476
10.073008 -5.205924 -2.396795
10.007461 -5.332446 -2.396953
9.581064 -6.073465 -2.397878
9.504600 -6.193769 -2.398028
9.426581 -6.313107 -2.398177
9.266132 -6.548796 -2.398471
9.183623 -6.665120 -2.398616
9.099697 -6.780402 -2.398760
9.014306 -6.894619 -2.398902
8.839238 -7.119805 -2.399184
8.749482 -7.230738 -2.399322
8.472373 -7.556654 -2.399728
8.377138 -7.662936 -2.399861
8.280635 -7.768024 -2.399992
8.083692 -7.974519 -2.400249
7.881572 -8.175990 -2.400500
7.702373 -8.193714 -2.377096
7.515176 -8.198656 -2.350945
6.976904 -8.212482 -2.277832
6.576103 -8.359878 -2.248322
6.364541 -8.523256 -2.248526
5.929277 -8.833791 -2.248912
5.592783 -9.052082 -2.249183
5.478799 -9.121994 -2.249270
5.363945 -9.190472 -2.249355
5.131680 -9.323046 -2.249520
4.902373 -9.461830 -2.252560
4.783594 -9.523650 -2.252788
4.663945 -9.583897 -2.252997
4.422344 -9.699589 -2.253349
4.054287 -9.860950 -2.253710
3.293076 -10.117130 -2.248996
3.033291 -10.181558 -2.245657
2.901943 -10.207789 -2.243224
2.770879 -10.233846 -2.241121
2.640166 -10.260544 -2.239524
2.509228 -10.285666 -2.237949
1.849463 -10.372485 -2.227118
1.585312 -10.396591 -2.223034
1.320469 -10.408872 -2.217861
1.188340 -10.414125 -2.215621
0.700879 -11.048049 -2.340031
0.422295 -11.042629 -2.335895
0.005781 -11.040667 -2.333775
-0.549014 -11.028715 -2.334135
-0.826172 -11.014016 -2.334681
-1.103096 -10.993482 -2.335471
-1.241387 -10.981050 -2.335957
-1.379609 -10.967155 -2.336505
-1.517686 -10.951811 -2.337113
-2.068740 -10.875876 -2.340158
-2.206094 -10.853250 -2.341072
-2.343281 -10.829182 -2.342046
-2.617041 -10.776682 -2.344178
-2.889961 -10.718364 -2.346555
-3.161924 -10.654216 -2.349171
-3.701807 -10.506177 -2.354610
-3.835879 -10.465200 -2.356044
-3.969560 -10.422744 -2.357531
-4.102861 -10.378808 -2.359070
-4.235849 -10.333410 -2.360662
-4.501758 -10.241008 -2.364657
-4.764893 -10.139904 -2.368223
-5.024990 -10.030520 -2.371429
-5.280605 -9.910734 -2.373740
-5.404951 -9.843892 -2.373812
-5.528349 -9.775502 -2.373887
-5.772656 -9.634118 -2.374041
-5.893427 -9.561144 -2.374120
-6.013340 -9.486650 -2.374202
-6.132236 -9.410668 -2.374285
-6.250225 -9.333200 -2.374369
-6.483262 -9.173865 -2.374544
-6.712324 -9.008737 -2.374725
-6.937109 -8.837918 -2.374914
-7.047910 -8.750402 -2.375010
-7.479902 -8.386662 -2.375412
-7.688984 -8.196775 -2.375623
-7.791748 -8.099874 -2.375730
-8.190381 -7.699610 -2.376175
-8.286904 -7.596452 -2.376290
-8.382110 -7.492084 -2.376406
-8.476035 -7.386523 -2.376524
-8.659834 -7.171916 -2.376764
-8.925361 -6.841502 -2.377133
-9.011132 -6.729159 -2.377259
-9.095439 -6.615751 -2.377386
-9.339844 -6.269274 -2.377774
-9.418418 -6.151760 -2.377906
-9.926396 -5.302695 -2.378860
-10.121025 -4.925685 -2.379285
-10.467158 -4.150851 -2.380160
-10.710498 -3.486528 -2.380911
-10.836426 -3.080988 -2.381371
-10.911787 -2.808059 -2.381680
-10.946934 -2.670901 -2.381836
-11.096719 -1.978922 -2.382622
-11.121465 -1.839455 -2.382781
-11.165664 -1.559595 -2.383099
-11.232939 -0.996899 -2.383740
-11.245313 -0.855729 -2.383901
-11.255947 -0.714393 -2.384062
-11.271835 -0.431376 -2.384379
-11.282305 -0.006237 -2.384850
-11.276768 0.419070 -2.385321
-11.271338 0.560775 -2.385478
-11.255215 0.843960 -2.385792
-11.244443 0.985385 -2.385949
-11.231934 1.126672 -2.386106
-11.217597 1.267812 -2.386262
-11.164033 1.690019 -2.386730
-11.053672 2.246511 -2.384285
-10.092686 3.133476 -2.233841
-9.919745 3.635581 -2.233214
-9.872568 3.759689 -2.233058
-9.668535 4.249803 -2.232446
-9.557422 4.490829 -2.232145
-9.499590 4.610260 -2.231996
-9.440273 4.728949 -2.231848
-9.121748 5.310643 -2.231122
-8.913526 5.649588 -2.230698
-5.459922 3.656161 -1.388977
-5.456455 3.753996 -1.399986
-5.453008 3.853480 -1.411419
-8.949746 6.844460 -2.381603
-8.862500 6.955979 -2.381464
-8.773877 7.066388 -2.381326
-8.405859 7.496607 -2.380790
-8.213935 7.704632 -2.380530
-8.116015 7.806815 -2.380403
-8.016885 7.907777 -2.380277
-7.916455 8.007468 -2.380153
-7.814805 8.105896 -2.380030
-7.607861 8.298884 -2.379790
-7.396201 8.486600 -2.379556
-7.070097 8.758091 -2.379218
-6.959150 8.845831 -2.379109
-6.847109 8.932190 -2.379002
-5.425010 9.854660 -2.377855
-4.407480 10.346702 -2.377245
-4.276973 10.400969 -2.377178
-4.014043 10.504600 -2.377050
-3.881611 10.553946 -2.376989
-3.748623 10.601624 -2.376930
-3.210898 10.775598 -2.376715
-3.075205 10.814874 -2.376667
-2.665273 10.922478 -2.376534
-2.389873 10.985652 -2.376457
-2.251592 11.014653 -2.376421
-1.974033 11.067449 -2.376357
-1.834795 11.091248 -2.376328
-0.994062 11.197333 -2.376200
-0.853262 11.208879 -2.376186
-0.712363 11.218657 -2.376175
-0.571309 11.226677 -2.376166
-0.289023 11.237439 -2.376154
-0.147793 11.240170 -2.376151
0.134727 11.240335 -2.376153
0.275937 11.237776 -2.376156
0.699307 11.219501 -2.376182
0.840254 11.209892 -2.376194
1.121709 11.185392 -2.376227
1.262158 11.170503 -2.376246
1.821904 11.093442 -2.376346
1.961162 11.069809 -2.376376
2.100185 11.044448 -2.376409
2.515029 10.957956 -2.376520
3.062666 10.818557 -2.376697
3.602666 10.651956 -2.376909
3.869385 10.558589 -2.377027
4.001894 10.509406 -2.377090
4.395498 10.351980 -2.377289
4.525361 10.296227 -2.377359
4.910664 10.119310 -2.377583
5.163799 9.993364 -2.377742
5.289121 9.928039 -2.377825
5.413662 9.861145 -2.377909
5.660176 9.722700 -2.378084
5.782148 9.651166 -2.378174
6.142500 9.427505 -2.378456
6.494287 9.190449 -2.378755
2.792930 3.748910 -0.988186
6.836963 8.940335 -2.379070
7.278857 8.587141 -2.379514
7.386562 8.495399 -2.379630
7.598437 8.307920 -2.379866
7.702646 8.212208 -2.379986
7.805634 8.115183 -2.380108
7.907393 8.016864 -2.380232
8.107245 7.816453 -2.380484
8.301982 7.611083 -2.380742
8.397422 7.506572 -2.380873
8.491591 7.400870 -2.381006
8.854727 6.966466 -2.381552
9.028067 6.742563 -2.381833
9.195762 6.514333 -2.382120
9.277431 6.398652 -2.382265
9.357676 6.281957 -2.382411
8.907041 5.660109 -2.230787
9.182685 5.206743 -2.231356
9.247969 5.091283 -2.231501
9.311807 4.974994 -2.231647
9.374208 4.857918 -2.231794
9.435156 4.740039 -2.231942
9.494599 4.621418 -2.232091
9.552588 4.502038 -2.232240
9.663984 4.261145 -2.232543
9.769355 4.017505 -2.232848
9.819746 3.894688 -2.233002
9.868604 3.771254 -2.233157
9.961621 3.522554 -2.233469
10.089443 3.145279 -2.233942
10.128906 3.018454 -2.234101
10.166767 2.891136 -2.234260
10.203017 2.763356 -2.234421
10.237685 2.635119 -2.234581
10.270703 2.506454 -2.234742
10.302119 2.377363 -2.234904
10.453925 2.274414 -2.261452
11.120684 1.983762 -2.387802
11.145536 1.844004 -2.387977
11.190000 1.563568 -2.388328
11.227431 1.282061 -2.388680
11.270292 0.858180 -2.389211
11.280995 0.716547 -2.389389
11.289970 0.574781 -2.389566
11.297119 0.432891 -2.389744
11.306113 0.148873 -2.390100
10.466191 -0.126246 -2.390439
10.461152 -0.389274 -2.390768
10.456172 -0.520728 -2.390933
10.449512 -0.652125 -2.391097
10.441211 -0.783439 -2.391261
10.431250 -0.914637 -2.391426
10.391494 -1.307410 -2.391917
10.356768 -1.568347 -2.392243
10.336943 -1.698486 -2.392406
10.292412 -1.957977 -2.392731
10.241347 -2.216307 -2.393054
10.213369 -2.344980 -2.393215
10.085332 -2.855936 -2.393854
10.011719 -3.108884 -2.394170
9.972529 -3.234656 -2.394327
9.931728 -3.359938 -2.394483
9.889365 -3.484700 -2.394639
9.845429 -3.608924 -2.394794
9.799922 -3.732597 -2.394949
9.752881 -3.855694 -2.395103
9.704307 -3.978199 -2.395256
9.654170 -4.100090 -2.395408
9.602480 -4.221342 -2.395560
9.549277 -4.341945 -2.395710
9.494541 -4.461879 -2.395860
9.438311 -4.581119 -2.396009
9.380606 -4.699651 -2.396157
9.321367 -4.817448 -2.396304
9.198477 -5.050782 -2.396596
9.069707 -5.280982 -2.396883
9.003213 -5.394859 -2.397025
8.722813 -5.841757 -2.397583
8.574199 -6.059792 -2.397855
8.497851 -6.167404 -2.397989
8.341123 -6.379711 -2.398254
8.179052 -6.588019 -2.398514
8.011777 -6.792206 -2.398769
7.926220 -6.892703 -2.398894
7.839306 -6.992115 -2.399018
7.571504 -7.283719 -2.399381
7.479599 -7.378649 -2.399500
7.003271 -7.835585 -2.400069
6.904551 -7.923344 -2.400178
6.804727 -8.009838 -2.400286
6.703867 -8.095062 -2.400392
6.445224 -8.193466 -2.380776
6.283330 -8.197613 -2.358851
6.124326 -8.201619 -2.337673
5.516299 -8.218535 -2.260537
4.962783 -8.503134 -2.248492
4.856729 -8.566941 -2.249048
4.749189 -8.628160 -2.249274
4.640840 -8.688017 -2.249496
4.421806 -8.803361 -2.249868
3.861426 -9.066315 -2.250536
3.632461 -9.160669 -2.250582
3.283096 -9.286788 -2.249542
3.046484 -9.359575 -2.247915
2.687559 -9.453615 -2.244557
2.567188 -9.481645 -2.243377
2.446367 -9.507358 -2.242008
2.082070 -9.573395 -2.237472
1.619463 -9.793038 -2.266899
1.510244 -9.904426 -2.288107
0.785205 -10.322419 -2.364233
0.654814 -10.321486 -2.361948
