# This PCD file was generated using the MATLAB® pcwrite function
# from Computer Vision Toolbox®.
# .PCD v.7 - Point Cloud Data file format
VERSION .7
FIELDS x y z
SIZE 4 4 4
TYPE F F F
COUNT 1 1 1
WIDTH 1584
HEIGHT 1
VIEWPOINT 0 0 0 1 0 0 0
POINTS 1584
DATA ascii
3.917178 -10.479810 0.209149
3.793769 -10.552070 0.209622
3.675029 -10.639949 0.210434
3.191709 -11.004130 0.214190
2.959746 -11.254199 0.217540
2.407959 -12.234514 0.233100
2.339072 -12.726686 0.241898
2.260020 -14.310871 0.270844
2.241084 -20.990299 0.394622
1.124316 -36.302528 0.678966
0.216562 -37.164623 0.694765
-0.250498 -37.163555 0.694752
-0.717617 -37.163094 0.694859
-2.121064 -37.165508 0.695905
-2.590166 -37.167576 0.696498
-3.060146 -37.170292 0.697217
-3.531289 -37.173622 0.698053
-5.430361 -37.193485 0.702671
-5.909717 -37.200069 0.704140
-7.361670 -37.223904 0.709339
-7.850957 -37.233238 0.711340
-8.838740 -37.254032 0.715760
-8.984394 -32.381084 0.628199
-9.401035 -32.301418 0.628898
-11.371904 -37.318874 0.729314
-11.891337 -37.334129 0.732473
-12.415546 -37.350224 0.735793
-12.944882 -37.367088 0.739267
-13.479531 -37.384823 0.742909
-14.019843 -37.403465 0.746728
-14.566142 -37.422977 0.750716
-15.118554 -37.443348 0.754873
-15.862128 -36.606915 0.745818
-16.425606 -36.638271 0.750598
-17.275166 -34.941795 0.728675
-17.268398 -31.846996 0.677238
-17.268261 -30.913225 0.661944
-17.268135 -30.020592 0.647424
-17.277460 -29.181974 0.633972
-17.275049 -28.358828 0.620755
-17.272734 -27.569149 0.608181
-17.260117 -26.069084 0.584471
-17.260010 -25.370453 0.573626
-17.259901 -24.697123 0.563263
-17.259697 -23.420454 0.543865
-17.259853 -22.814728 0.534797
-17.259325 -22.227852 0.526082
-17.258818 -21.659693 0.517732
-17.257851 -20.575459 0.502037
-17.255009 -20.054735 0.494569
-17.251835 -18.585491 0.474047
-17.250820 -18.122231 0.467727
-17.249687 -17.232292 0.455807
-17.249443 -16.804296 0.450183
-17.249218 -16.386650 0.444768
-17.248993 -15.978891 0.439548
-17.248339 -14.810178 0.424997
-17.248144 -14.437422 0.420497
-17.249384 -14.073643 0.416171
-17.219198 -13.692209 0.411256
-17.171396 -13.305442 0.406089
-17.146797 -12.609682 0.397888
-17.281113 -12.051223 0.393860
-17.364805 -11.788032 0.392350
-17.527363 -11.579330 0.392705
-17.690292 -11.370214 0.393119
-17.865294 -11.167966 0.393861
-19.357967 -10.158880 0.408678
-21.503534 -9.940527 0.442862
-22.303320 -9.972076 0.456718
-23.075077 -9.971110 0.469919
-23.893045 -9.970090 0.484004
-24.781328 -9.976980 0.499402
-25.711191 -9.977743 0.515573
-26.703514 -9.978557 0.532913
-27.761679 -9.978214 0.551486
-30.117323 -9.977569 0.593102
-31.423691 -9.973914 0.616314
-32.855350 -9.975625 0.641890
-34.385860 -9.970134 0.669283
-36.069668 -9.968649 0.699544
-42.236641 -9.975963 0.811244
-44.668495 -9.959400 0.855541
-47.525528 -9.971149 0.907786
-39.304958 3.239630 0.737260
-39.415039 3.747930 0.740150
-39.426758 4.249670 0.741311
-22.686014 3.606143 0.429418
-22.282694 4.118675 0.423611
-5.476631 3.059942 0.117277
-5.465654 3.236676 0.118746
-5.454424 3.418042 0.120332
-5.609931 3.614448 0.124754
-5.610342 3.715303 0.125792
-4.843066 3.569787 0.112473
-32.760487 34.491337 0.889278
-32.208885 34.775650 0.886101
-32.214237 35.670296 0.898507
-31.282890 36.439846 0.897794
-31.297539 37.397739 0.911630
-31.312635 38.385761 0.926059
-20.254541 34.296474 0.744598
-18.294325 34.868191 0.736099
-17.743427 34.876621 0.731512
-17.199209 34.884945 0.727097
-16.129961 34.901306 0.718758
-14.051572 32.526615 0.662364
-12.627158 32.547562 0.652634
-12.161396 32.554417 0.649652
-11.699814 32.561207 0.646806
-11.242109 32.567940 0.644075
-10.788213 32.574608 0.641482
-9.891035 32.587807 0.636643
-8.568887 32.607246 0.630259
-7.271211 32.626331 0.624882
-6.843281 32.632626 0.623303
-6.417520 32.638882 0.621836
-5.993662 32.645119 0.620466
-4.314668 32.669800 0.616035
-3.068867 32.688114 0.613759
8.769609 41.551064 0.793871
8.229463 34.656712 0.665891
8.634336 34.430923 0.663582
9.018769 34.139694 0.660103
10.108183 33.149063 0.647864
10.567490 33.156078 0.650542
11.030703 33.163158 0.653352
11.498008 33.170303 0.656287
11.969628 33.177505 0.659352
12.445790 33.184776 0.662552
12.926592 33.192120 0.665891
13.942588 34.512035 0.695831
14.452949 34.519833 0.699597
14.968974 34.527718 0.703518
15.405410 34.345078 0.703546
15.429941 33.273594 0.685649
15.782626 32.943069 0.682872
16.821405 32.958931 0.691749
17.351191 32.967030 0.696440
17.888281 32.975235 0.701308
15.763866 22.547333 0.514301
2.771182 3.758886 0.087301
18.964296 24.414066 0.577913
19.748125 24.145187 0.583114
19.725624 23.508549 0.573683
29.799784 33.754230 0.841724
30.536133 33.724342 0.850475
32.177940 33.790558 0.872277
33.863300 33.816307 0.894627
35.906502 32.421318 0.904380
37.279316 31.997272 0.918406
38.829121 30.863762 0.927247
11.228203 4.193305 0.224060
11.413281 3.938522 0.225707
11.506924 3.809694 0.226594
11.583711 3.674266 0.227180
11.586767 3.357178 0.225513
11.588310 3.200315 0.224742
11.589853 3.044523 0.224012
11.591475 2.889729 0.223323
28.336220 4.466747 0.536260
28.576416 4.137247 0.539780
28.743036 3.426317 0.541127
28.786972 3.065183 0.541189
28.791161 2.700175 0.540586
46.541641 -9.808988 0.117829
43.811729 -9.810254 0.111217
41.381004 -9.813651 0.105354
39.203438 -9.819187 0.100114
37.230740 -9.823955 0.095382
35.428291 -9.826161 0.091082
30.869394 -9.828916 0.080274
26.227617 -9.827939 0.069384
25.260508 -9.829288 0.067148
23.513359 -9.836804 0.063140
22.711113 -9.838351 0.061312
21.235332 -9.840038 0.057977
20.556826 -9.841308 0.056460
18.717920 -9.844754 0.052398
18.148369 -9.838322 0.051139
17.615879 -9.838081 0.049983
16.619629 -9.837632 0.047845
16.152676 -9.837421 0.046851
15.280498 -9.841021 0.045025
14.470409 -9.842448 0.043355
14.087441 -9.843122 0.042575
13.717919 -9.843769 0.041827
13.016142 -9.845003 0.040446
12.357529 -9.844715 0.039141
12.044521 -9.845292 0.038540
11.446289 -9.846398 0.037405
11.160069 -9.846926 0.036872
10.881894 -9.847436 0.036358
10.611328 -9.847934 0.035865
10.347959 -9.848419 0.035389
9.597500 -9.849800 0.034082
9.355517 -9.846049 0.033646
9.123105 -9.846350 0.033252
8.896015 -9.846646 0.032873
8.674043 -9.846932 0.032507
8.431904 -9.818084 0.032059
8.003144 -9.807131 0.031358
7.795683 -9.801827 0.031023
7.385839 -9.781370 0.030363
6.807158 -9.759235 0.029476
6.626640 -9.759600 0.029223
6.449209 -9.759960 0.028979
6.274648 -9.760313 0.028744
6.102920 -9.760679 0.028517
5.492461 -9.853615 0.027945
5.343554 -9.876285 0.027816
5.203008 -9.912170 0.027732
5.069570 -9.960133 0.027686
4.936533 -10.007938 0.027643
4.803906 -10.055612 0.027606
4.671592 -10.103158 0.027573
4.414961 -10.214466 0.027565
4.166689 -10.346686 0.027632
4.042119 -10.413056 0.027670
3.793730 -10.551887 0.027777
3.674990 -10.639768 0.027886
3.312959 -10.907737 0.028239
3.191670 -11.003950 0.028381
2.959717 -11.254013 0.028826
2.840976 -11.382041 0.029060
2.512129 -11.967854 0.030294
2.302695 -13.479245 0.033876
2.248662 -17.001381 0.042482
2.228486 -32.404686 0.080464
1.256396 -22.373688 0.055511
0.972861 -22.335522 0.055384
1.023711 -33.054096 0.081923
0.607930 -33.046402 0.081880
0.197656 -33.913593 0.084012
-0.654805 -33.911839 0.084025
-1.081279 -33.911068 0.084051
-3.651582 -33.907959 0.084484
-4.065078 -33.757076 0.084231
-4.950586 -33.907417 0.084886
-6.264072 -33.907570 0.085419
-6.705840 -33.907791 0.085626
-7.149785 -33.908043 0.085843
-7.596162 -33.908413 0.086081
-8.960312 -32.294365 0.083025
-9.401406 -32.302723 0.083342
-10.333858 -33.912289 0.087825
-12.228993 -33.916546 0.089315
-12.713349 -33.917816 0.089729
-13.202343 -33.919216 0.090167
-13.696220 -33.920700 0.090622
-14.195175 -33.922264 0.091094
-14.634257 -33.773247 0.091182
-15.527031 -33.499718 0.091469
-15.833407 -33.065113 0.090817
-16.352539 -33.075638 0.091405
-16.878553 -33.086372 0.092013
-17.274570 -32.836632 0.091911
-17.268818 -31.847795 0.089747
-17.276903 -29.181065 0.084007
-17.272186 -27.568312 0.080591
-17.269970 -26.809946 0.079002
-17.260420 -26.069576 0.077453
-17.260195 -24.697554 0.074640
-17.260078 -24.048027 0.073327
-17.259237 -22.227758 0.069715
-17.258730 -21.659609 0.068605
-17.257763 -20.575359 0.066507
-17.254492 -19.551693 0.064596
-17.253437 -19.062143 0.063691
-17.252382 -18.586107 0.062819
-17.251356 -18.122828 0.061980
-17.249228 -16.386677 0.058939
-17.248789 -15.580542 0.057580
-17.248573 -15.191115 0.056937
-17.248360 -14.810207 0.056318
-17.249414 -14.073676 0.055149
-17.171434 -13.305490 0.053814
-17.150459 -12.947595 0.053232
-17.199432 -12.318394 0.052406
-17.280975 -12.051154 0.052191
-17.527128 -11.579189 0.052038
-17.690058 -11.370073 0.052093
-18.292030 -10.805071 0.052629
-18.526777 -10.631980 0.052915
-20.669014 -9.871862 0.056744
-21.502129 -9.939872 0.058684
-22.303593 -9.972197 0.060522
-23.075390 -9.971232 0.062272
-23.893320 -9.970215 0.064120
-25.709629 -9.977140 0.068316
-26.701836 -9.977934 0.070616
-27.758436 -9.977046 0.073075
-31.422186 -9.973434 0.081666
-32.853672 -9.975123 0.085080
-34.384121 -9.969630 0.088684
-36.067753 -9.968125 0.092668
-37.916954 -9.968077 0.097123
-44.668690 -9.959445 0.113368
-22.529238 3.002856 0.056305
-22.510273 3.288742 0.056355
-22.640390 3.598890 0.056790
-46.499493 18.104074 0.123611
-41.595291 18.028357 0.112305
-40.397755 18.115725 0.109679
-39.079666 18.117893 0.106710
-36.476776 18.038389 0.100811
-35.538399 18.133686 0.098833
-34.464981 18.135454 0.096474
-5.419531 3.118048 0.015488
-29.775723 18.142097 0.086374
-27.401327 18.146006 0.081414
-5.429609 3.694613 0.016269
-4.930645 3.539578 0.015037
-24.612440 18.141752 0.075744
-5.158066 3.902957 0.016023
-21.630898 18.146658 0.069943
-20.465899 18.064787 0.067627
-19.541201 18.142487 0.066058
-18.583574 18.144062 0.064340
-18.123056 18.144821 0.063531
-17.673857 18.145563 0.062748
-17.235527 18.146282 0.062000
-16.807539 18.146986 0.061275
-15.980449 18.148346 0.059901
-15.508652 18.065332 0.058980
-15.154228 18.108007 0.058495
-14.064219 18.154261 0.056890
-13.703075 18.154854 0.056347
-13.000839 18.156008 0.055320
-12.659141 18.156569 0.054832
-12.323339 18.157122 0.054362
-11.993183 18.157663 0.053908
-11.034394 18.159243 0.052640
-8.954814 18.163025 0.050166
-8.673037 18.163488 0.049863
-8.394599 18.163950 0.049569
-8.119394 18.164398 0.049288
-7.847207 18.164848 0.049019
-7.047715 18.166162 0.048272
-6.271172 18.167439 0.047612
-6.016885 18.167856 0.047410
-5.514531 18.168684 0.047035
-5.242129 18.086037 0.046647
-4.996523 18.085747 0.046481
-4.752851 18.086145 0.046325
-4.531836 18.170994 0.046393
-4.290078 18.171394 0.046254
-4.049795 18.171789 0.046121
-3.810820 18.172180 0.045998
-3.573066 18.172571 0.045879
-2.866582 18.173733 0.045579
-2.168320 18.174883 0.045343
-1.937012 18.175262 0.045280
-0.788271 18.177151 0.045073
-0.559541 18.177526 0.045051
-0.102471 18.178276 0.045034
0.125381 18.094860 0.044826
0.352861 18.095234 0.044836
0.583379 18.187813 0.045080
0.812305 18.188190 0.045103
1.041523 18.188566 0.045130
2.426347 18.190847 0.045462
2.659502 18.191227 0.045543
2.893496 18.191614 0.045633
3.128447 18.191999 0.045726
3.839775 18.193167 0.046062
4.320283 18.193960 0.046323
5.271494 18.099726 0.046703
5.772841 18.112556 0.047095
6.048613 18.184795 0.047474
6.303662 18.185217 0.047680
7.885039 18.187815 0.049108
8.434619 18.188719 0.049667
9.283789 18.190111 0.050591
9.868222 18.191076 0.051267
10.166406 18.191566 0.051627
10.726015 18.108694 0.052139
11.036084 18.109201 0.052536
11.408857 18.202139 0.053216
11.730351 18.202665 0.053646
12.389394 18.203747 0.054551
13.071474 18.204870 0.055521
2.842324 3.755624 0.011645
14.142500 18.206631 0.057114
14.513506 18.207241 0.057681
14.892040 18.207861 0.058270
16.002363 18.125896 0.059898
16.490078 18.211823 0.060860
16.912060 18.212519 0.061569
18.705078 18.215462 0.064680
22.345409 18.224424 0.071429
22.928984 18.225386 0.072560
24.797138 18.228453 0.076243
25.463026 18.229546 0.077579
26.744247 18.147863 0.080063
27.591024 18.220268 0.081906
30.867802 18.225657 0.088804
31.629316 18.143114 0.090331
32.737411 18.235844 0.092827
33.730576 18.237471 0.094987
39.487400 18.244902 0.107756
42.060291 18.165339 0.113499
43.778282 18.257969 0.117508
45.381592 18.260597 0.121184
11.229170 4.033604 0.029557
11.514052 3.652151 0.029924
11.519345 3.181258 0.029604
28.326630 4.101076 0.070905
27.824131 3.671974 0.069527
28.616346 3.411221 0.071393
28.620537 3.047467 0.071299
46.534519 -9.807485 -0.653345
43.811443 -9.810201 -0.616795
41.377422 -9.812804 -0.584220
39.198826 -9.818054 -0.555160
28.361504 -9.822025 -0.412345
27.261660 -9.826524 -0.398115
26.227684 -9.827972 -0.384787
25.260605 -9.829322 -0.372382
21.952187 -9.839040 -0.330489
21.233280 -9.839088 -0.321503
19.299023 -9.842782 -0.297626
18.147743 -9.837984 -0.283596
16.619091 -9.837317 -0.265319
16.152168 -9.837112 -0.259818
15.280253 -9.840864 -0.249691
14.867568 -9.841591 -0.244950
14.470185 -9.842298 -0.240422
14.087226 -9.842973 -0.236096
13.717714 -9.843625 -0.231957
13.360859 -9.844254 -0.227996
12.682256 -9.845449 -0.220558
12.357285 -9.844522 -0.217054
11.740703 -9.845662 -0.210504
11.446084 -9.846210 -0.207423
11.159853 -9.846741 -0.204463
10.611123 -9.847756 -0.198884
10.091249 -9.848716 -0.193719
9.597324 -9.849631 -0.188923
9.355498 -9.846025 -0.186592
9.123096 -9.846326 -0.184410
8.896006 -9.846622 -0.182309
8.214911 -9.812284 -0.175809
7.795478 -9.801569 -0.172052
7.588506 -9.791471 -0.170188
6.992353 -9.761023 -0.164957
6.806982 -9.758996 -0.163464
6.626474 -9.759360 -0.162062
6.449043 -9.759721 -0.160708
6.274492 -9.760078 -0.159404
5.642695 -9.830514 -0.155722
5.343437 -9.876076 -0.154268
5.069463 -9.959941 -0.153538
4.803809 -10.055417 -0.153098
4.671504 -10.102966 -0.152916
4.290889 -10.280314 -0.153044
4.166641 -10.346501 -0.153237
3.793662 -10.551709 -0.154047
3.674922 -10.639585 -0.154644
3.555244 -10.728162 -0.155270
3.191621 -11.003777 -0.157404
2.959668 -11.253830 -0.159870
2.302676 -13.479157 -0.187863
2.259443 -14.307112 -0.198992
2.249072 -17.004486 -0.235646
2.241963 -20.998405 -0.290121
1.257871 -22.399973 -0.308220
0.982793 -22.563562 -0.310277
0.930019 -30.029274 -0.412747
0.552314 -30.023466 -0.412541
-0.594141 -30.770870 -0.422815
-0.985508 -30.907681 -0.424835
-1.374404 -30.905745 -0.425010
-2.543730 -30.897568 -0.425915
-3.326592 -30.890165 -0.426830
-3.719346 -30.885851 -0.427384
-4.094668 -30.742880 -0.426084
-4.904160 -30.870518 -0.429428
-5.301719 -30.864618 -0.430235
-5.700762 -30.858282 -0.431112
-7.314297 -30.828676 -0.435292
-7.722666 -30.820190 -0.436508
-8.133232 -30.811298 -0.437790
-8.546230 -30.801897 -0.439151
-9.800869 -30.770966 -0.443667
-11.032499 -30.598156 -0.446853
-11.515810 -30.722973 -0.450754
-12.394150 -30.695864 -0.454788
-12.839072 -30.681528 -0.456928
-13.741504 -30.651171 -0.461474
-14.596191 -30.481424 -0.464301
-15.608525 -29.669634 -0.460574
-16.559042 -29.643600 -0.466482
-17.043711 -29.630371 -0.469609
-17.276367 -29.180170 -0.465878
-17.273973 -28.357075 -0.456165
-17.271679 -27.567490 -0.446921
-17.269472 -26.809162 -0.438068
-17.260742 -26.070053 -0.429547
-17.260605 -25.371378 -0.421572
-17.260380 -24.048452 -0.406675
-17.260273 -23.421249 -0.399726
-17.259687 -22.814510 -0.393020
-17.259159 -22.227654 -0.386614
-17.258661 -21.659496 -0.380478
-17.258163 -21.109037 -0.374587
-17.257694 -20.575281 -0.368925
-17.255077 -19.552341 -0.358259
-17.252949 -18.586706 -0.348403
-17.251913 -18.123413 -0.343757
-17.250917 -17.672216 -0.339269
-17.249502 -16.804369 -0.330845
-17.249277 -16.386713 -0.326863
-17.249043 -15.978948 -0.323025
-17.248604 -15.191147 -0.315767
-17.249443 -14.073706 -0.305844
-17.150469 -12.947593 -0.295224
-17.146797 -12.609694 -0.292409
-17.364355 -11.787737 -0.288330
-17.526915 -11.579042 -0.288594
-17.689833 -11.369934 -0.288896
-18.077305 -10.987009 -0.290623
-18.291729 -10.804897 -0.291864
-18.526426 -10.631775 -0.293454
-18.784472 -10.468276 -0.295436
-19.046103 -10.302531 -0.297488
-20.113535 -9.918881 -0.308099
-20.667969 -9.871362 -0.314664
-23.075684 -9.971354 -0.345353
-23.893633 -9.970340 -0.355669
-24.778437 -9.975813 -0.366966
-26.700174 -9.977311 -0.391587
-27.755196 -9.975881 -0.405189
-31.420664 -9.972955 -0.452888
-34.382420 -9.969128 -0.491811
-44.668884 -9.959486 -0.628739
-46.500782 18.104570 -0.685552
-44.832989 18.107300 -0.664265
-34.465740 18.135845 -0.535047
-31.383242 18.056025 -0.497404
-29.776289 18.142443 -0.479026
-27.401815 18.146332 -0.451513
-25.270233 18.140982 -0.427360
-24.612850 18.142057 -0.420067
-23.977364 18.143097 -0.413080
-23.362637 18.144108 -0.406388
-22.767382 18.145081 -0.399965
-22.190605 18.146025 -0.393813
-21.631229 18.146940 -0.387898
-20.982285 18.056606 -0.380295
-20.466211 18.065056 -0.375026
-19.541494 18.142754 -0.366330
-18.583847 18.144321 -0.356818
-18.123320 18.145075 -0.352324
-17.674101 18.145817 -0.348000
-17.235762 18.146536 -0.343832
-16.807774 18.147234 -0.339814
-15.980663 18.148588 -0.332211
-15.508857 18.065569 -0.327100
-14.808212 18.153267 -0.321845
-14.432607 18.153887 -0.318617
-14.064414 18.154490 -0.315498
-13.000996 18.156233 -0.306788
-12.659297 18.156790 -0.304088
-12.323486 18.157341 -0.301479
-11.993330 18.157881 -0.298959
-11.668613 18.158415 -0.296531
-11.034531 18.159454 -0.291926
-10.724697 18.159964 -0.289745
-10.071845 18.077244 -0.284294
-9.529189 18.162285 -0.281776
-9.240214 18.162758 -0.279959
-8.954912 18.163225 -0.278211
-8.673135 18.163689 -0.276524
-8.394697 18.164148 -0.274904
-8.119473 18.164597 -0.273343
-7.311572 18.165922 -0.269024
-6.271240 18.167631 -0.264042
-5.764775 18.168459 -0.261867
-5.242177 18.086227 -0.258702
-4.996572 18.085932 -0.257774
-4.752900 18.086334 -0.256909
-4.049834 18.171972 -0.255776
-3.810859 18.172365 -0.255089
-3.573105 18.172756 -0.254440
-2.866611 18.173916 -0.252762
-2.400283 18.174685 -0.251855
-1.706377 18.175825 -0.250801
-1.476221 18.176203 -0.250531
-1.246533 18.176582 -0.250300
-1.017256 18.176954 -0.250110
-0.788281 18.177332 -0.249959
-0.330938 18.178083 -0.249776
-0.102471 18.178457 -0.249744
0.125381 18.095043 -0.248600
1.731436 18.189888 -0.251027
2.893525 18.191797 -0.253065
3.128476 18.192183 -0.253596
3.839814 18.193352 -0.255452
4.320332 18.194147 -0.256904
5.519346 18.100323 -0.259968
5.772900 18.112745 -0.261171
6.048682 18.184984 -0.263287
6.303720 18.185408 -0.264420
6.561006 18.185833 -0.265600
6.820654 18.186260 -0.266840
7.082744 18.186691 -0.268131
7.885127 18.188013 -0.272342
8.158369 18.188463 -0.273865
8.434716 18.188915 -0.275444
8.997334 18.189844 -0.278795
9.868340 18.191284 -0.284320
10.428506 18.121973 -0.287247
10.726142 18.108904 -0.289150
11.036230 18.109417 -0.291346
11.730497 18.202883 -0.297506
12.389541 18.203966 -0.302515
12.727597 18.204527 -0.305160
13.071640 18.205095 -0.307898
2.842246 3.755519 -0.064719
14.142675 18.206861 -0.316729
15.278643 18.208735 -0.326551
16.002567 18.126137 -0.332181
16.490322 18.212070 -0.337528
16.912285 18.212763 -0.341452
17.786709 18.214209 -0.349751
18.705351 18.215723 -0.358699
19.182665 18.216513 -0.363432
19.672792 18.217321 -0.368354
20.176495 18.218153 -0.373464
21.129717 18.135933 -0.382550
21.779989 18.223780 -0.390147
22.345751 18.224712 -0.396144
25.463448 18.229860 -0.430230
26.153271 18.231001 -0.437984
26.744726 18.148188 -0.444030
34.771973 18.239580 -0.539436
35.863926 18.241381 -0.552778
36.836826 18.157167 -0.564216
38.215088 18.243237 -0.581765
40.833191 18.247562 -0.614444
42.061356 18.165800 -0.629441
45.382820 18.261089 -0.672064
11.819931 3.586327 -0.169695
11.449180 3.317303 -0.163761
11.451161 3.162434 -0.163206
46.527344 -9.805981 -1.424633
39.194324 -9.816920 -1.210575
37.222595 -9.821794 -1.153413
30.860439 -9.826066 -0.970327
29.558065 -9.822199 -0.933205
28.362158 -9.822250 -0.899276
27.261757 -9.826558 -0.868230
26.227812 -9.828005 -0.839165
25.260674 -9.829351 -0.812110
20.552969 -9.839459 -0.682717
19.909258 -9.840717 -0.665389
19.297314 -9.841906 -0.649018
17.614697 -9.837421 -0.604479
16.151640 -9.836802 -0.566604
15.280000 -9.840709 -0.544528
14.867343 -9.841438 -0.534189
14.469960 -9.842146 -0.524315
14.087021 -9.842825 -0.514880
13.717509 -9.843477 -0.505855
13.360674 -9.844110 -0.497220
12.044043 -9.844908 -0.466065
11.445859 -9.846025 -0.452353
11.159648 -9.846557 -0.445897
10.091064 -9.848544 -0.422460
9.597168 -9.849463 -0.412034
9.355478 -9.846004 -0.406928
8.674004 -9.846891 -0.393162
7.795283 -9.801307 -0.375210
7.588310 -9.791209 -0.371142
7.385449 -9.780851 -0.367202
6.806816 -9.758754 -0.356481
6.102656 -9.760254 -0.344884
5.642568 -9.830303 -0.339599
5.202793 -9.911791 -0.335392
5.069365 -9.959749 -0.334834
4.936347 -10.007550 -0.334330
4.803720 -10.055226 -0.333878
4.671416 -10.102770 -0.333481
4.539394 -10.150211 -0.333139
4.414795 -10.214097 -0.333389
4.041973 -10.412683 -0.334656
3.916992 -10.479239 -0.335185
3.793594 -10.551528 -0.335946
3.674863 -10.639400 -0.337246
3.312832 -10.907355 -0.341536
2.407910 -12.234192 -0.373580
2.339033 -12.726323 -0.387680
2.246397 -18.798813 -0.567237
2.243398 -23.847036 -0.717637
2.218848 -27.255632 -0.819308
1.259063 -22.421181 -0.672820
-0.189316 -28.083933 -0.841440
-0.537217 -27.821419 -0.833717
-0.890762 -27.936396 -0.837431
-1.245459 -28.006426 -0.839931
-1.955811 -28.064915 -0.842894
-3.023223 -28.073168 -0.845965
-3.738291 -28.067123 -0.848344
-4.078457 -27.934153 -0.845809
-4.456211 -28.050634 -0.850965
-4.816719 -28.041086 -0.852448
-5.541308 -28.019463 -0.855751
-6.271279 -27.994291 -0.859523
-6.638486 -27.980339 -0.861591
-7.007353 -27.965515 -0.863776
-7.750264 -27.933029 -0.868520
-8.879189 -27.877270 -0.876575
-9.259814 -27.856716 -0.879520
-10.027705 -27.811331 -0.885765
-10.415322 -27.786955 -0.889087
-10.805625 -27.761587 -0.892551
-11.198682 -27.735197 -0.896156
-12.395898 -27.649755 -0.907855
-14.039121 -27.520319 -0.925629
-15.311796 -27.410845 -0.940703
-15.642431 -26.420420 -0.919916
-16.507011 -26.347033 -0.931518
-17.261065 -26.070541 -0.936785
-17.260927 -25.371834 -0.919400
-17.260801 -24.698435 -0.902790
-17.260567 -23.421665 -0.871772
-17.259600 -22.814413 -0.857113
-17.259081 -22.227564 -0.843150
-17.258574 -21.659414 -0.829761
-17.256777 -20.056791 -0.792735
-17.253515 -18.587324 -0.759833
-17.248857 -15.580607 -0.696413
-17.248642 -15.191184 -0.688639
-17.248232 -14.437511 -0.673909
-17.249481 -14.073735 -0.667006
-17.219364 -13.692363 -0.659135
-17.171572 -13.305586 -0.650850
-17.150478 -12.947607 -0.643835
-17.146807 -12.609699 -0.637699
-17.280771 -12.051005 -0.631211
-17.364130 -11.787598 -0.628795
-17.526699 -11.578897 -0.629366
-18.077011 -10.986838 -0.633795
-18.526064 -10.631567 -0.639963
-18.784111 -10.468074 -0.644284
-20.112881 -9.918554 -0.671892
-20.666914 -9.870863 -0.686202
-21.499296 -9.938566 -0.709637
-22.304121 -9.972433 -0.732011
-23.075937 -9.971478 -0.753166
-23.893946 -9.970467 -0.775706
-26.698515 -9.976688 -0.853951
-30.105936 -9.973805 -0.950247
-36.063965 -9.967078 -1.121085
-39.955059 -9.968794 -1.233793
-44.669060 -9.959525 -1.371188
-31.177616 -3.325771 -0.939412
-31.463320 -2.956853 -0.946823
-44.834198 18.107782 -1.448695
-34.982071 14.642570 -1.136211
-34.435665 14.925129 -1.124467
-34.498085 15.470054 -1.132762
-37.832615 18.120789 -1.256815
-33.442890 18.137896 -1.139863
-28.953789 18.144133 -1.023742
-28.162987 18.145422 -1.003765
-5.110605 3.477543 -0.185205
-5.504922 3.847949 -0.201232
-23.977753 18.143396 -0.900884
-20.982597 18.056883 -0.829380
-19.541777 18.143023 -0.798925
-19.056688 18.143808 -0.788353
-17.674355 18.146067 -0.758944
-17.236006 18.146784 -0.749857
-15.980879 18.148830 -0.724514
-15.509062 18.065807 -0.713363
-14.808389 18.153502 -0.701905
-14.064590 18.154718 -0.688064
-13.001152 18.156452 -0.669065
-11.668750 18.158630 -0.646695
-11.349218 18.159155 -0.641583
-11.034658 18.159670 -0.636650
-10.724824 18.160175 -0.631896
-10.071962 18.077448 -0.620009
-9.240322 18.162962 -0.610552
-8.955019 18.163427 -0.606739
-8.673223 18.163889 -0.603066
-7.847383 18.165243 -0.592861
-7.311640 18.166121 -0.586704
-6.786650 18.166977 -0.581038
-6.527842 18.167402 -0.578384
-6.271308 18.167820 -0.575842
-5.242236 18.086412 -0.564188
-4.996631 18.086121 -0.562175
-3.810898 18.172548 -0.556309
-3.573144 18.172941 -0.554903
-3.336601 18.173330 -0.553591
-3.101133 18.173714 -0.552373
-2.633027 18.174482 -0.550211
-2.168359 18.175249 -0.548407
-1.937041 18.175629 -0.547643
-1.706387 18.176008 -0.546966
-1.476240 18.176384 -0.546374
-1.017266 18.177137 -0.545458
-0.788291 18.177515 -0.545129
-0.330938 18.178265 -0.544728
-0.102471 18.178637 -0.544660
0.125381 18.095222 -0.542162
0.352861 18.095594 -0.542264
0.583389 18.188179 -0.545215
0.812314 18.188555 -0.545491
1.500986 18.189692 -0.546833
1.962441 18.190449 -0.548167
2.194072 18.190830 -0.548963
2.426396 18.191210 -0.549854
2.659560 18.191597 -0.550830
2.893545 18.191980 -0.551902
3.128506 18.192368 -0.553061
3.364522 18.192757 -0.554315
3.601592 18.193144 -0.555663
4.320371 18.194334 -0.560277
4.562744 18.194733 -0.562011
4.806650 18.195133 -0.563846
5.052236 18.195539 -0.565782
5.271592 18.100105 -0.564826
5.519404 18.100512 -0.566957
6.820723 18.186457 -0.581943
7.347558 18.187325 -0.587698
7.614971 18.187765 -0.590755
7.885215 18.188213 -0.593942
8.158466 18.188662 -0.597260
8.434805 18.189117 -0.600707
8.714395 18.189579 -0.604294
9.283984 18.190519 -0.611883
9.574286 18.191004 -0.615899
10.166650 18.191982 -0.624391
11.409131 18.202568 -0.643641
11.730635 18.203100 -0.648820
12.057412 18.203640 -0.654191
12.727754 18.204746 -0.665518
14.513877 18.207706 -0.697627
15.671875 18.207731 -0.719768
16.490538 18.212317 -0.736105
16.912510 18.213015 -0.744664
17.344463 18.213730 -0.753548
17.786963 18.214460 -0.762767
18.705614 18.215984 -0.782273
19.182949 18.216778 -0.792599
19.673077 18.217590 -0.803327
20.176805 18.218426 -0.814483
21.130039 18.136213 -0.834294
21.780331 18.224062 -0.850864
23.532099 18.226971 -0.891801
24.154501 18.228003 -0.906638
24.797958 18.229069 -0.922115
25.463905 18.230173 -0.938291
28.362705 18.222212 -1.010043
29.164326 18.223539 -1.030354
32.738758 18.236593 -1.122796
33.732002 18.238239 -1.148908
34.772732 18.239971 -1.176459
38.215965 18.243664 -1.268762
43.780594 18.258919 -1.421211
45.383991 18.261581 -1.465704
30.757725 11.486831 -0.983698
30.793798 11.061375 -0.980329
26.144569 -2.481034 -1.213294
25.250166 -2.716729 -1.173278
23.867090 -2.871761 -1.110603
23.811249 -3.169102 -1.109769
23.782246 -3.469935 -1.110364
23.794024 -3.777625 -1.113041
23.842188 -4.093075 -1.117612
47.775616 -9.443640 -2.249915
43.811016 -9.810093 -2.074172
41.370323 -9.811115 -1.964303
37.218468 -9.820709 -1.778330
32.248848 -9.823533 -1.557472
29.558798 -9.822432 -1.439026
27.261864 -9.826589 -1.338808
26.227861 -9.828035 -1.293992
21.229198 -9.837193 -1.080960
19.295586 -9.841027 -1.000695
18.146484 -9.837310 -0.953622
17.614120 -9.837090 -0.932071
16.618036 -9.836683 -0.892164
16.151133 -9.836493 -0.873660
14.867099 -9.841286 -0.823701
13.717304 -9.843334 -0.780012
13.360478 -9.843967 -0.766696
13.015595 -9.844580 -0.753936
12.681894 -9.845174 -0.741717
12.356796 -9.844132 -0.729890
11.159443 -9.846373 -0.687554
10.881299 -9.846893 -0.677989
10.347403 -9.847890 -0.659940
10.090878 -9.848371 -0.651414
9.840830 -9.848837 -0.643215
9.597002 -9.849291 -0.635328
9.355449 -9.845984 -0.627478
8.895957 -9.846577 -0.613069
8.673974 -9.846870 -0.606252
8.214453 -9.811753 -0.591189
8.002490 -9.806342 -0.584756
7.795068 -9.801049 -0.578553
7.385244 -9.780592 -0.566207
6.626143 -9.758881 -0.544962
6.274189 -9.759607 -0.536024
6.102520 -9.760039 -0.531795
5.947558 -9.783632 -0.528965
5.642441 -9.830091 -0.523640
5.492099 -9.852983 -0.521137
4.936250 -10.007360 -0.515521
4.803623 -10.055031 -0.514826
4.671309 -10.102577 -0.514215
4.539307 -10.150019 -0.513685
4.414717 -10.213913 -0.514070
4.166484 -10.346128 -0.515290
4.041894 -10.412495 -0.516025
3.793535 -10.551350 -0.518015
3.674805 -10.639218 -0.520021
3.191514 -11.003418 -0.529305
2.840840 -11.381476 -0.541954
2.339004 -12.726215 -0.597795
2.302646 -13.478962 -0.631745
2.258848 -14.303334 -0.668999
2.255869 -15.550151 -0.725932
2.249902 -17.010822 -0.792736
2.242832 -21.006504 -0.976007
2.010615 -24.697599 -1.144792
1.075684 -24.697327 -1.142085
0.764785 -24.695080 -1.141448
0.149141 -25.598053 -1.182639
-0.172344 -25.566261 -1.181179
-0.491885 -25.473032 -1.177060
-1.123721 -25.268496 -1.168546
-1.436250 -25.165773 -1.164541
-2.053721 -24.945532 -1.156371
-2.358447 -24.827261 -1.152171
-2.660918 -24.708883 -1.148139
-3.284141 -24.657368 -1.149219
-3.606152 -24.699259 -1.153194
-4.256426 -24.779444 -1.161567
-4.584844 -24.817759 -1.165967
-5.583730 -24.925137 -1.180070
-6.602861 -25.013664 -1.195204
-6.941143 -25.016996 -1.199437
-7.281543 -25.018993 -1.203823
-7.624033 -25.019594 -1.208370
-8.310342 -25.000383 -1.217143
-9.003554 -24.970911 -1.226345
-9.353486 -24.954098 -1.231192
-10.413770 -24.885700 -1.246316
-11.491338 -24.792568 -1.262460
-11.855771 -24.758501 -1.268210
-12.222939 -24.722870 -1.274152
-12.593046 -24.685633 -1.280289
-13.721641 -24.564108 -1.299908
-14.880029 -24.427181 -1.321424
-15.268838 -24.370735 -1.328643
-15.833711 -23.273912 -1.300482
-16.222441 -23.212637 -1.308349
-17.259531 -22.814299 -1.321650
-17.258505 -21.659315 -1.279472
-17.255156 -19.064053 -1.187946
-17.253046 -18.124584 -1.156068
-17.252022 -17.673359 -1.141019
-17.249815 -17.232431 -1.126467
-17.249346 -16.386784 -1.099188
-17.249111 -15.979018 -1.086290
-17.248896 -15.580634 -1.073857
-17.248671 -15.191206 -1.061877
-17.248466 -14.810287 -1.050326
-17.249531 -14.073765 -1.028513
-17.171631 -13.305639 -1.003610
-17.150488 -12.947615 -0.992784
-17.199110 -12.318161 -0.977370
-17.280674 -12.050927 -0.973309
-17.363926 -11.787446 -0.969582
-17.526484 -11.578754 -0.970461
-17.689404 -11.369651 -0.971492
-18.076719 -10.986655 -0.977287
-18.783749 -10.467869 -0.993460
-19.045361 -10.302129 -1.000366
-20.112226 -9.918228 -1.036015
-21.497890 -9.937912 -1.094182
-22.304394 -9.972554 -1.128768
-23.894257 -9.970594 -1.196163
-24.775547 -9.974644 -1.233900
-26.696835 -9.976064 -1.316662
-27.748692 -9.973544 -1.362270
-28.882675 -9.973062 -1.411674
-30.102167 -9.972550 -1.465069
-31.417637 -9.971992 -1.522838
-32.848751 -9.973624 -1.585994
-36.062050 -9.966555 -1.728528
-37.917576 -9.968239 -1.811298
-39.949375 -9.967376 -1.902221
-44.669258 -9.959570 -2.114418
-47.497929 -9.965354 -2.242162
-47.771290 -9.397547 -2.249310
-48.242207 -8.236686 -2.261016
-30.032537 -3.969256 -1.399550
-30.035820 -3.586252 -1.397492
-30.035467 -2.822667 -1.393740
-48.278652 2.759876 -2.234090
-48.161366 3.969596 -2.232577
-39.589294 3.764496 -1.837255
-48.013828 5.175239 -2.231068
-45.144394 16.282335 -2.217182
-35.315331 13.240972 -1.742460
-34.522636 13.440969 -1.711548
-33.835567 13.665534 -1.685868
-33.950603 14.210844 -1.700365
-34.092712 14.776511 -1.716647
-34.252930 15.360131 -1.734299
-34.392166 15.944643 -1.751353
-34.712929 17.166098 -1.789095
-34.899841 17.807791 -1.810121
-34.467205 18.136618 -1.799369
-32.466270 18.139856 -1.718165
-31.384512 18.056747 -1.672789
-5.202929 3.445508 -0.288302
-5.508027 3.850122 -0.310472
-25.271112 18.141602 -1.437204
-23.363398 18.144697 -1.366663
-22.191288 18.146597 -1.324363
-18.584385 18.144838 -1.199955
-18.123838 18.145588 -1.184850
-17.674599 18.146320 -1.170296
-17.236250 18.147034 -1.156285
-16.808231 18.147726 -1.142776
-16.389971 18.148405 -1.129759
-14.808594 18.153732 -1.082343
-14.432979 18.154350 -1.071480
-14.064765 18.154945 -1.061001
-12.659619 18.157234 -1.022618
-12.323798 18.157778 -1.013845
-11.993623 18.158316 -1.005379
-11.034785 18.159882 -0.981724
-10.724951 18.160385 -0.974390
-9.529414 18.162693 -0.947586
-9.240430 18.163164 -0.941480
-7.578184 18.165878 -0.909352
-7.047939 18.166746 -0.900241
-6.527910 18.167593 -0.891870
-6.271367 18.168013 -0.887951
-6.017080 18.168430 -0.884206
-5.764893 18.168842 -0.880630
-5.514707 18.169254 -0.877223
-4.996689 18.086311 -0.866879
-4.049922 18.172346 -0.860150
-3.573184 18.173126 -0.855662
-3.101152 18.173899 -0.851760
-2.866680 18.174282 -0.850023
-2.168389 18.175432 -0.845648
-1.937070 18.175810 -0.844467
-1.706406 18.176191 -0.843424
-0.788301 18.177694 -0.840589
-0.559561 18.178070 -0.840215
-0.102480 18.178823 -0.839865
0.583389 18.188358 -0.840725
1.041543 18.189114 -0.841704
1.500996 18.189873 -0.843218
1.731465 18.190250 -0.844179
2.659580 18.191780 -0.849384
3.128535 18.192551 -0.852824
3.364551 18.192940 -0.854757
3.601621 18.193333 -0.856833
3.839892 18.193726 -0.859057
4.079443 18.194120 -0.861429
4.806689 18.195324 -0.869451
5.271650 18.100292 -0.870967
5.519463 18.100700 -0.874251
5.773017 18.113125 -0.878292
6.048799 18.185368 -0.885412
6.820801 18.186647 -0.897361
7.615049 18.187962 -0.910952
8.434902 18.189318 -0.926296
8.714492 18.189783 -0.931825
9.574385 18.191208 -0.949721
9.868554 18.191696 -0.956146
10.166758 18.192192 -0.962809
10.428486 18.121965 -0.965951
11.036474 18.109838 -0.979788
11.730771 18.203316 -1.000486
12.057549 18.203857 -1.008765
12.727910 18.204967 -1.026232
2.770967 3.758591 -0.215734
2.842090 3.755313 -0.217574
14.143037 18.207321 -1.065126
14.514071 18.207939 -1.075751
15.279033 18.209209 -1.098170
16.490761 18.212561 -1.135080
16.912745 18.213264 -1.148282
17.344687 18.213982 -1.161977
18.705889 18.216246 -1.206279
19.183212 18.217041 -1.222200
19.673378 18.217859 -1.238743
20.177109 18.218697 -1.255947
21.130371 18.136492 -1.286494
21.780674 18.224348 -1.312037
22.346464 18.225288 -1.332221
22.930088 18.226267 -1.353248
24.154892 18.228306 -1.398047
26.745663 18.148834 -1.493244
27.592539 18.221262 -1.527638
29.164892 18.223886 -1.588822
31.631248 18.144211 -1.684699
33.732704 18.238625 -1.771648
29.576298 10.624056 -1.451891
31.240702 10.780588 -1.526825
11.440967 3.787861 -0.556784
47.949783 5.715876 -2.230941
48.110683 4.512058 -2.232449
35.696014 2.458355 -2.234948
38.166580 2.146960 -2.387752
38.200157 1.667581 -2.388352
38.227722 1.187681 -2.388953
38.274246 -0.254272 -2.390758
38.275059 -1.216704 -2.391963
38.266376 -1.698012 -2.392565
38.251648 -2.179313 -2.393168
38.230820 -2.660527 -2.393770
38.203972 -3.141535 -2.394372
23.637774 -2.543251 -1.484998
23.376221 -2.812704 -1.470668
23.285429 -3.099109 -1.467291
23.250908 -3.392405 -1.467685
23.254208 -3.691916 -1.470710
23.492489 -4.337641 -1.492203
37.690018 -7.450058 -2.399762
34.926327 -8.747923 -2.248971
34.822109 -9.188401 -2.249521
34.712284 -9.627589 -2.250070
32.243923 -9.822047 -2.105402
30.851484 -9.823215 -2.022393
28.363426 -9.822699 -1.874881
26.227968 -9.828068 -1.749501
25.260839 -9.829415 -1.693079
22.703857 -9.835202 -1.545484
21.947069 -9.836746 -1.502278
21.227158 -9.836243 -1.461331
19.293848 -9.840147 -1.352828
18.711395 -9.841322 -1.320550
18.145878 -9.836970 -1.289272
16.617479 -9.836367 -1.206181
14.866865 -9.841132 -1.113640
14.469511 -9.841844 -1.093052
14.086582 -9.842526 -1.073381
13.717090 -9.843186 -1.054573
13.360283 -9.843822 -1.036570
12.356552 -9.843935 -0.986801
11.740039 -9.845093 -0.957030
10.881104 -9.846713 -0.916636
10.090693 -9.848195 -0.880716
9.355430 -9.845961 -0.848356
9.123027 -9.846263 -0.838436
8.895937 -9.846558 -0.828877
8.673955 -9.846851 -0.819658
7.794863 -9.800789 -0.782190
7.587900 -9.790686 -0.773712
7.385049 -9.780334 -0.765501
6.806475 -9.758270 -0.743150
6.448574 -9.759009 -0.730629
6.274043 -9.759371 -0.724697
6.102383 -9.759826 -0.718977
5.794131 -9.806768 -0.711480
5.642324 -9.829878 -0.707957
5.069180 -9.959363 -0.698032
4.936152 -10.007167 -0.696981
4.414629 -10.213730 -0.695018
4.290664 -10.279756 -0.695786
4.166406 -10.345940 -0.696667
4.041816 -10.412302 -0.697661
3.674736 -10.639035 -0.703065
3.555049 -10.727605 -0.705909
3.191465 -11.003237 -0.715616
2.720342 -11.512651 -0.738910
2.511982 -11.967168 -0.763788
2.407861 -12.233965 -0.778823
2.338984 -12.726093 -0.808218
2.302627 -13.478874 -0.854121
2.258555 -14.301445 -0.904374
2.255547 -15.547900 -0.981326
2.250313 -17.013975 -1.071990
2.247314 -18.806538 -1.183058
2.105303 -22.379683 -1.404065
1.822246 -22.384081 -1.402791
1.539551 -22.387133 -1.401657
1.257217 -22.388828 -1.400664
0.975186 -22.389196 -1.399810
0.693389 -22.388237 -1.399095
0.415635 -22.594997 -1.411577
-0.734102 -23.022499 -1.438772
-1.023603 -23.017292 -1.439138
-1.599414 -22.950552 -1.437024
-1.883213 -22.874214 -1.433611
-2.165605 -22.797007 -1.430368
-2.446631 -22.718981 -1.427286
-3.003535 -22.550556 -1.421000
-3.279004 -22.458422 -1.417679
-3.825752 -22.272081 -1.411543
-4.095469 -22.168736 -1.408143
-4.363242 -22.062538 -1.404771
-4.629570 -21.955839 -1.401570
-5.201494 -21.923481 -1.407408
-5.497549 -21.939987 -1.412793
-5.795488 -21.955004 -1.418337
-6.095351 -21.968479 -1.424045
-6.701103 -21.990845 -1.435959
-7.938310 -22.016506 -1.461865
-8.570663 -22.019495 -1.475902
-8.890429 -22.018442 -1.483202
-9.212734 -22.015621 -1.490698
-9.537637 -22.011101 -1.498386
-9.865166 -22.004744 -1.506278
-10.528418 -21.986599 -1.522673
-10.864297 -21.974749 -1.531186
-11.544922 -21.945265 -1.548865
-12.565029 -21.844194 -1.574064
-13.254404 -21.758570 -1.591400
-13.955546 -21.664623 -1.609678
-14.310703 -21.614422 -1.619183
-15.029961 -21.506298 -1.638877
-15.375644 -21.422476 -1.647083
-15.509511 -20.501015 -1.605704
-16.430458 -20.096603 -1.621419
-16.778399 -20.003794 -1.630817
-17.125614 -19.904297 -1.640120
-17.256836 -19.554333 -1.629024
-17.254658 -18.588547 -1.584203
-17.253613 -18.125185 -1.563070
-17.252577 -17.673931 -1.542714
-17.249384 -16.386818 -1.486116
-17.248711 -15.191242 -1.435673
-17.248301 -14.437568 -1.404982
-17.171700 -13.305686 -1.356898
-17.146826 -12.609704 -1.329465
-17.199013 -12.318089 -1.321394
-17.526270 -11.578606 -1.312059
-17.863838 -11.167060 -1.315899
-18.783379 -10.467664 -1.343141
-19.675293 -10.012101 -1.378932
-20.664824 -9.869860 -1.430445
-24.774082 -9.974060 -1.668155
-34.714493 -9.594120 -2.249631
-34.823788 -9.154880 -2.249081
-34.927422 -8.714400 -2.248529
-37.602478 -7.889222 -2.399881
-37.689373 -7.414237 -2.399286
-37.844940 -6.461497 -2.398092
-29.530996 -3.902969 -1.860615
-29.470409 -3.518741 -1.853865
-29.493788 -3.146148 -1.852702
-29.625526 -2.784147 -1.858639
-32.285137 -2.625211 -2.023267
-38.246014 -2.144043 -2.392686
-38.260349 -1.662842 -2.392084
-38.270779 -0.700400 -2.390879
-38.266853 -0.219351 -2.390277
-38.256950 0.261465 -2.389675
-38.240993 0.742023 -2.389073
-38.219002 1.222210 -2.388473
-38.191055 1.702001 -2.387872
-35.686756 2.490326 -2.234500
-35.643749 2.937856 -2.233940
-35.415722 4.720442 -2.231710
-22.541952 3.583244 -1.425702
-37.174023 8.331390 -2.379580
-36.934959 9.258531 -2.378421
-36.806736 9.719576 -2.377845
-36.672791 10.178877 -2.377270
-35.577538 13.339270 -2.373321
-35.398926 13.782116 -2.372768
-35.214626 14.222558 -2.372217
-34.629688 15.529084 -2.370585
-34.424042 15.959409 -2.370048
-33.791954 16.185358 -2.340349
-31.769785 16.210651 -2.227819
-30.970741 17.304237 -2.215984
-30.744198 17.688261 -2.215505
-30.512968 18.069321 -2.215029
-30.277557 18.447790 -2.214595
-28.954903 18.144817 -2.134369
-27.403320 18.147316 -2.052980
-5.511748 3.750500 -0.416421
-5.511152 3.852300 -0.420000
-24.614120 18.142973 -1.909983
-22.191660 18.146881 -1.790588
-20.040819 18.142748 -1.688559
-19.057236 18.144335 -1.643598
-17.674852 18.146572 -1.582282
-16.390196 18.148649 -1.527473
-15.509472 18.066284 -1.487253
-15.154247 18.108023 -1.474892
-14.808788 18.153967 -1.463361
-11.034922 18.160093 -1.327317
-10.072187 18.077864 -1.292623
-9.529511 18.162897 -1.281167
-9.240527 18.163368 -1.272907
-8.955215 18.163832 -1.264953
-8.673428 18.164291 -1.257294
-7.847558 18.165640 -1.236019
-7.048018 18.166941 -1.217155
-6.527978 18.167786 -1.205833
-6.017138 18.168621 -1.195473
-5.764951 18.169033 -1.190638
-5.242343 18.086792 -1.176239
-4.996738 18.086496 -1.172043
-4.049961 18.172529 -1.162945
-3.810977 18.172922 -1.159814
-3.573223 18.173309 -1.156880
-3.336670 18.173698 -1.154145
-2.168408 18.175615 -1.143342
-1.706426 18.176374 -1.140331
-1.476269 18.176750 -1.139101
-0.559570 18.178253 -1.135994
0.125391 18.095585 -1.130320
0.352861 18.095959 -1.130530
0.583398 18.188541 -1.136682
1.041553 18.189295 -1.138006
1.731484 18.190434 -1.141351
2.194111 18.191196 -1.144498
2.426445 18.191580 -1.146352
2.659609 18.191963 -1.148390
2.893604 18.192348 -1.150620
3.128564 18.192736 -1.153039
3.364580 18.193127 -1.155654
4.320468 18.194710 -1.168085
4.562842 18.195110 -1.171700
5.052334 18.195917 -1.179557
5.271699 18.100483 -1.177571
5.519521 18.100891 -1.182020
6.303936 18.185986 -1.202248
6.820869 18.186842 -1.213257
7.082969 18.187277 -1.219129
8.434990 18.189518 -1.252379
8.714590 18.189983 -1.259852
8.997637 18.190451 -1.267615
9.284199 18.190928 -1.275678
9.574502 18.191416 -1.284052
10.428495 18.121962 -1.305983
10.726514 18.109535 -1.314702
11.036612 18.110050 -1.324710
11.409394 18.202997 -1.341885
12.057705 18.204075 -1.363879
12.389999 18.204628 -1.375479
12.728056 18.205193 -1.387499
13.072139 18.205769 -1.399953
2.842012 3.755210 -0.294173
14.143223 18.207556 -1.440089
14.514267 18.208174 -1.454450
14.892812 18.208805 -1.469335
15.279247 18.209448 -1.484766
16.490976 18.212811 -1.534667
16.912968 18.213512 -1.552513
17.344931 18.214235 -1.571032
18.241014 18.215729 -1.610205
19.183496 18.217304 -1.652454
23.532881 18.227566 -1.859284
24.155283 18.228607 -1.890212
24.798807 18.229687 -1.922485
26.154638 18.231960 -1.991434
26.746162 18.149157 -2.018945
27.593037 18.221596 -2.065424
29.827393 19.163210 -2.214472
30.069170 18.788918 -2.214714
30.306259 18.411604 -2.214959
30.541660 18.033068 -2.215424
30.772509 17.651598 -2.215903
30.998671 17.267290 -2.216385
31.220028 16.880047 -2.216871
31.436699 16.490053 -2.217360
34.656250 15.487209 -2.371034
34.856201 15.053955 -2.371578
32.532246 12.149546 -2.169130
29.502851 10.597663 -1.958106
11.435400 3.786016 -0.752413
36.259022 11.501033 -2.376033
36.693253 10.133477 -2.377747
36.826599 9.673904 -2.378323
36.954327 9.212616 -2.378901
37.598660 6.412058 -2.382410
28.632704 3.778689 -1.803978
35.553097 3.785625 -2.233286
35.606678 3.339371 -2.233845
28.285332 2.305468 -2.235097
30.246172 2.083033 -2.387787
30.275986 1.703094 -2.388263
30.301113 1.322759 -2.388739
30.321337 0.942046 -2.389215
30.336855 0.561058 -2.389692
30.347569 0.179796 -2.390170
30.329247 -1.727964 -2.392557
30.311142 -2.109383 -2.393035
26.109375 -2.477700 -2.065569
23.269278 -2.799833 -1.845868
29.866875 -5.903687 -2.397781
29.796200 -6.279782 -2.398252
29.640516 -7.029358 -2.399189
29.371552 -8.146335 -2.400586
28.180586 -8.198764 -2.311482
27.309151 -8.318795 -2.248390
26.991512 -9.347572 -2.249676
26.876963 -9.687885 -2.250101
26.228056 -9.828098 -2.205940
25.260889 -9.829446 -2.134811
21.945351 -9.835979 -1.894040
21.225098 -9.835290 -1.842402
20.547157 -9.836683 -1.794146
19.292118 -9.839264 -1.705617
18.709755 -9.840460 -1.664933
17.612919 -9.836426 -1.588832
17.104023 -9.836238 -1.553956
15.702236 -9.835700 -1.459272
15.279297 -9.840238 -1.431336
14.866640 -9.840977 -1.404154
14.086376 -9.842380 -1.353397
13.716914 -9.843041 -1.329682
13.360078 -9.843680 -1.306983
11.739795 -9.844904 -1.206684
11.445214 -9.845465 -1.189029
10.610361 -9.847039 -1.140076
9.840468 -9.848493 -1.096491
9.355400 -9.845938 -1.069683
8.895918 -9.846536 -1.045120
8.673935 -9.846829 -1.033498
8.430742 -9.816739 -1.019140
8.214013 -9.811218 -1.007769
8.002060 -9.805816 -0.996805
7.794658 -9.800528 -0.986231
7.384853 -9.780075 -0.965186
6.991621 -9.760009 -0.945562
6.625820 -9.758400 -0.928975
6.448418 -9.758771 -0.921222
5.642207 -9.829664 -0.892634
5.491875 -9.852558 -0.888377
5.202490 -9.911211 -0.881597
5.069072 -9.959171 -0.880125
4.803437 -10.054643 -0.877613
4.539121 -10.149628 -0.875667
4.414551 -10.213545 -0.876326
4.290586 -10.279570 -0.877295
4.166328 -10.345752 -0.878405
4.041748 -10.412114 -0.879657
3.793398 -10.550983 -0.883054
3.674668 -10.638852 -0.886472
3.554990 -10.727419 -0.890059
3.434365 -10.816718 -0.893817
3.312656 -10.906787 -0.897748
2.617822 -11.735981 -0.947022
2.407842 -12.233860 -0.982004
2.338974 -12.725976 -1.019067
2.302607 -13.478752 -1.076943
2.255215 -15.545715 -1.237172
2.247773 -18.810371 -1.492013
1.910586 -20.309801 -1.606629
1.397402 -20.320261 -1.604169
0.629482 -20.324926 -1.601524
-0.407061 -21.080181 -1.660547
-0.927705 -20.860332 -1.644547
-1.182959 -20.727343 -1.635108
-1.698447 -20.630190 -1.630295
-3.001152 -20.555311 -1.636066
-3.262324 -20.535419 -1.637614
-3.523740 -20.513845 -1.639297
-5.279521 -20.000315 -1.629147
-5.524219 -19.909985 -1.627314
-6.007627 -19.715057 -1.623215
-6.247060 -19.613258 -1.621168
-6.500166 -19.554567 -1.622943
-7.046504 -19.543110 -1.636175
-7.878740 -19.512812 -1.657340
-8.159678 -19.499123 -1.664756
-9.013633 -19.446980 -1.688130
-9.885224 -19.377573 -1.713257
-10.775586 -19.290163 -1.740224
-11.685966 -19.183754 -1.769135
-11.994121 -19.143921 -1.779222
-12.304697 -19.101851 -1.789539
-12.933378 -19.010710 -1.810892
-13.251572 -18.961601 -1.821934
-13.895996 -18.856073 -1.844775
-15.504101 -17.568222 -1.845396
-16.291407 -17.114330 -1.860943
-17.174952 -16.731720 -1.888437
-17.249414 -16.386860 -1.873839
-17.249189 -15.979082 -1.851851
-17.248964 -15.580706 -1.830661
-17.249599 -14.073820 -1.753358
-17.219570 -13.692516 -1.732679
-17.171757 -13.305732 -1.710905
-17.150497 -12.947624 -1.692443
-17.146826 -12.609709 -1.676312
-17.363495 -11.787155 -1.652851
-17.526035 -11.578469 -1.654343
-18.076132 -10.986296 -1.665968
-18.290546 -10.804192 -1.673080
-18.783016 -10.467459 -1.693523
-19.044619 -10.301723 -1.705299
-19.674833 -10.011862 -1.738634
-21.495058 -9.936602 -1.865046
-24.772636 -9.973472 -2.103236
-25.701855 -9.974123 -2.171322
-26.881718 -9.661937 -2.249761
-27.312422 -8.292658 -2.248044
-28.337149 -8.216315 -2.323708
-29.374569 -8.118315 -2.400214
-29.468534 -7.747039 -2.399749
-29.557774 -7.374681 -2.399283
-29.933203 -5.498666 -2.396932
-29.994022 -5.121065 -2.396459
-30.050077 -4.742794 -2.395986
-30.101288 -4.363886 -2.395511
-30.189550 -3.604614 -2.394560
-30.226406 -3.224298 -2.394084
-30.258574 -2.843633 -2.393607
-30.285839 -2.462636 -2.393130
-30.308262 -2.081436 -2.392653
-30.325975 -1.700060 -2.392175
-30.338945 -1.318568 -2.391698
-30.347031 -0.937022 -2.391220
-30.342596 0.207376 -2.389788
-30.331621 0.588550 -2.389311
-30.295116 1.350116 -2.388358
-30.269707 1.730381 -2.387882
-28.278809 2.330819 -2.234742
-28.241678 2.685468 -2.234298
-28.154121 3.393061 -2.233413
-28.103672 3.745852 -2.232971
-27.785702 5.497819 -2.230780
-29.509569 6.613643 -2.381774
-29.418398 6.982630 -2.381313
-29.322676 7.350360 -2.380853
-29.222303 7.716760 -2.380395
-29.117498 8.081833 -2.379938
-29.008066 8.445477 -2.379484
-28.894159 8.807695 -2.379031
-28.775761 9.168388 -2.378580
-28.525488 9.884932 -2.377685
-28.257559 10.594750 -2.376798
-28.116894 10.946973 -2.376358
-27.971992 11.297387 -2.375920
-27.822754 11.645847 -2.375485
-27.349062 12.679406 -2.374194
-27.182812 13.019763 -2.373769
-26.475527 14.359050 -2.372097
-25.702988 15.660544 -2.370472
-25.499804 15.979589 -2.370074
-5.514853 3.752610 -0.525357
-22.868671 16.416897 -2.217141
-22.656933 16.700325 -2.216788
-22.223104 17.259008 -2.216091
-21.775644 17.806580 -2.215408
-21.314844 18.342724 -2.214740
-21.080605 18.607311 -2.214528
-20.041122 18.143019 -2.129114
-19.057520 18.144602 -2.072425
-17.675097 18.146828 -1.995114
-15.981524 18.149555 -1.904604
-15.154238 18.108019 -1.859692
-14.808974 18.154202 -1.845163
-14.433339 18.154814 -1.826644
-14.065126 18.155407 -1.808776
-13.349560 18.156563 -1.774894
-12.659922 18.157675 -1.743345
-12.324092 18.158216 -1.728389
-11.993916 18.158752 -1.713953
-11.669179 18.159283 -1.700027
-11.349628 18.159798 -1.686588
-10.725195 18.160809 -1.661116
-10.371845 18.077587 -1.641451
-10.072314 18.078072 -1.629870
-9.822392 18.162628 -1.626237
-9.529629 18.163103 -1.615430
-8.955322 18.164036 -1.594984
-8.673525 18.164494 -1.585327
-8.395068 18.164948 -1.576034
-8.119834 18.165398 -1.567093
-6.528057 18.167980 -1.520442
-6.271504 18.168398 -1.513762
-4.996787 18.086683 -1.477834
