# This PCD file was generated using the MATLAB® pcwrite function
# from Computer Vision Toolbox®.
# .PCD v.7 - Point Cloud Data file format
VERSION .7
FIELDS x y z
SIZE 4 4 4
TYPE F F F
COUNT 1 1 1
WIDTH 1590
HEIGHT 1
VIEWPOINT 0 0 0 1 0 0 0
POINTS 1590
DATA ascii
14.262080 -10.953300 -1.416300
15.635213 -12.323359 -1.567916
12.852008 -10.394121 -1.301809
13.215307 -10.965468 -1.352463
12.862837 -10.948848 -1.330368
14.192925 -12.392051 -1.483926
13.846563 -12.399726 -1.463890
13.509387 -12.407207 -1.444615
13.180937 -12.414492 -1.426062
12.243601 -12.435273 -1.374420
11.945930 -12.441875 -1.358450
9.994717 -10.674922 -1.151732
9.566029 -11.021934 -1.149390
10.104422 -12.251133 -1.250727
9.514853 -12.145781 -1.215169
9.295484 -12.500586 -1.226893
8.152754 -12.537656 -1.177852
6.692558 -10.880996 -1.006097
6.628730 -11.087050 -1.017369
7.081241 -12.549687 -1.134885
6.675890 -12.558672 -1.120165
6.086596 -12.571738 -1.100070
5.894741 -12.575995 -1.093873
5.704994 -12.580195 -1.087916
5.147572 -12.592558 -1.071431
4.406956 -11.179863 -0.946449
4.243155 -11.173886 -0.941356
4.086493 -11.182793 -0.937706
3.929924 -11.188535 -0.933972
3.530109 -11.937793 -0.980450
3.535620 -12.533554 -1.025649
3.486505 -13.664844 -1.110706
3.575695 -17.680840 -1.420705
5.301475 -28.022383 -2.246147
4.949274 -28.088924 -2.246318
4.596241 -28.151035 -2.246489
3.532706 -28.310801 -2.247007
3.176896 -28.355194 -2.247180
0.630817 -7.279492 -0.575473
0.538886 -7.281425 -0.575050
0.345408 -7.082051 -0.558441
0.256223 -7.081543 -0.558102
0.078113 -7.080508 -0.557689
-0.099846 -7.079492 -0.557630
-0.277884 -7.078457 -0.557923
-0.456217 -7.077422 -0.558569
-0.904864 -7.074804 -0.561746
-1.086057 -7.073750 -0.563652
-1.177143 -7.073223 -0.564745
-1.268597 -7.072676 -0.565930
-1.360451 -7.072168 -0.567211
-1.638732 -7.070527 -0.571632
-2.113611 -7.067773 -0.581011
-2.210572 -7.067226 -0.583203
-2.308277 -7.066660 -0.585503
-2.506109 -7.065527 -0.590441
-2.606310 -7.064961 -0.593083
-2.707432 -7.064375 -0.595843
-2.912600 -7.063203 -0.601728
-3.016747 -7.062617 -0.604858
-3.228410 -7.061367 -0.611510
-3.336024 -7.060742 -0.615038
-3.444911 -7.060098 -0.618705
-3.555123 -7.059453 -0.622516
-3.666720 -7.058808 -0.626472
-3.779761 -7.058145 -0.630580
-3.894310 -7.057480 -0.634843
-4.247709 -7.055429 -0.648609
-4.492178 -7.053984 -0.658651
-4.617308 -7.053262 -0.663949
-5.037202 -7.095879 -0.685354
-5.138656 -7.049395 -0.687048
-5.274971 -7.048574 -0.693375
-5.413852 -7.047754 -0.699933
-5.555403 -7.046934 -0.706726
-5.847035 -7.045176 -0.721068
-5.997386 -7.044297 -0.728633
-6.307875 -7.042441 -0.744611
-6.632486 -7.040508 -0.761797
-6.800542 -7.039531 -0.770876
-7.515680 -7.035293 -0.810792
-7.706343 -7.034160 -0.821760
-7.902270 -7.033008 -0.833160
-8.103747 -7.031816 -0.845019
-8.744583 -7.028027 -0.883571
-8.971506 -7.026680 -0.897505
-9.205755 -7.025293 -0.912035
-9.447742 -7.023848 -0.927190
-9.697939 -7.022363 -0.943009
-9.956884 -7.020840 -0.959532
-10.225089 -7.019258 -0.976801
-10.515608 -7.025918 -0.996039
-10.804199 -7.023945 -1.014930
-12.078628 -7.015332 -1.100101
-12.431658 -7.012949 -1.124140
-12.800507 -7.010449 -1.149436
-13.186417 -7.007832 -1.176088
-14.460555 -6.999277 -1.265280
-14.929576 -6.996113 -1.298525
-15.423989 -6.992754 -1.333777
-16.490917 -6.982363 -1.410416
-17.079136 -6.979629 -1.453107
-17.704165 -6.976718 -1.498707
-18.369802 -6.973613 -1.547513
-18.160154 -6.121445 -1.509331
-23.490919 -6.943926 -1.929239
-24.609022 -6.939355 -2.013745
-27.156637 -6.926015 -2.207271
-27.937447 -6.752344 -2.263659
-28.244219 -5.340605 -2.263883
-28.309765 -4.985352 -2.263933
-30.352545 -4.561797 -2.417364
-30.504694 -3.414726 -2.417498
-30.545671 -3.031152 -2.417538
-30.581861 -2.647070 -2.417575
-30.613085 -2.262637 -2.417610
-30.689602 -0.721523 -2.417726
-30.696533 -0.335840 -2.417749
-30.695784 0.435762 -2.417788
-30.608444 2.362480 -2.417843
-30.576481 2.746953 -2.417847
-30.539551 3.130937 -2.417848
-30.343422 4.661543 -2.417829
-30.282301 5.042441 -2.417819
-30.216362 5.422539 -2.417805
-29.989826 6.557539 -2.417751
-29.904819 6.933828 -2.417728
-29.815004 7.308945 -2.417703
-29.621166 8.055761 -2.417645
-29.517202 8.427246 -2.417613
-29.177252 9.533379 -2.417501
-29.054571 9.899082 -2.417459
-28.927391 10.263242 -2.417414
-28.795616 10.625800 -2.417368
-28.372831 11.702890 -2.417214
-28.068424 12.411621 -2.417099
-27.406391 13.804882 -2.416843
-27.049185 14.488399 -2.416701
-26.674852 15.162715 -2.416551
-26.283691 15.827246 -2.416391
-26.081806 16.155762 -2.416308
-25.665676 16.804901 -2.416135
-25.233351 17.443319 -2.415954
-25.011169 17.758360 -2.415860
-23.817225 18.779766 -2.388784
-23.217293 18.784765 -2.352107
-22.635355 18.789492 -2.316898
-22.070553 18.794043 -2.283072
-21.629744 18.892616 -2.261847
-20.899225 19.691601 -2.261526
-20.649113 19.951717 -2.261416
-20.395807 20.208612 -2.261304
-20.139235 20.462343 -2.261190
-19.879469 20.712753 -2.261074
-18.910961 20.721836 -2.209471
-17.973957 20.717676 -2.160163
-17.743776 20.979258 -2.164017
-17.748173 21.527401 -2.197381
-17.406149 22.812773 -2.259959
-17.117109 23.028418 -2.259827
-16.825338 23.240292 -2.259693
-16.234032 23.652967 -2.259422
-15.993171 24.605371 -2.311259
-15.983263 25.279764 -2.355556
-15.376014 26.479004 -2.411542
-15.041036 26.668436 -2.411386
-14.703777 26.853594 -2.411228
-14.022409 27.211054 -2.410910
-12.984153 27.714590 -2.410422
-12.633960 27.873692 -2.410257
-11.214332 28.465389 -2.409586
-10.131252 28.861641 -2.409070
-8.665725 29.325703 -2.408370
-8.295911 29.430136 -2.408192
-7.552535 29.624941 -2.407835
-7.179112 29.715273 -2.407655
-5.675205 30.029432 -2.406927
-5.296976 30.096035 -2.406744
-4.538256 30.215038 -2.406375
-3.776874 30.314863 -2.406004
-3.013370 30.395565 -2.405630
-2.630933 30.428593 -2.405443
-1.865094 30.480331 -2.405067
-1.098319 30.512812 -2.404690
-0.714721 30.521738 -2.404501
-0.331093 30.525957 -2.404311
0.436115 30.519804 -2.403932
1.968479 30.449745 -2.403171
2.732680 30.385820 -2.402790
3.114070 30.346581 -2.402599
3.494892 30.302713 -2.402409
5.011539 30.079296 -2.401648
5.388701 30.011522 -2.401458
5.764997 29.939178 -2.401268
6.514547 29.780058 -2.400890
6.887729 29.693495 -2.400701
7.259792 29.602362 -2.400512
7.837623 27.442167 -2.247717
8.864338 27.120918 -2.247193
9.203745 27.005272 -2.247019
10.231709 26.682577 -2.250676
11.555949 26.126678 -2.249981
12.206964 25.823887 -2.249624
12.850125 25.504980 -2.249275
13.168608 25.339569 -2.249104
13.799235 24.996914 -2.248767
14.111224 24.819609 -2.248602
14.728403 24.453691 -2.248277
15.336175 24.072422 -2.247962
17.383759 22.621523 -2.246929
17.665579 22.399902 -2.246791
18.764418 21.478886 -2.246263
19.031767 21.240215 -2.246137
19.296125 20.998241 -2.246013
20.283163 19.959120 -2.241184
20.531122 19.701464 -2.241048
15.856221 14.837285 -1.710275
15.889977 13.783008 -1.656665
16.293774 13.430742 -1.663036
17.100733 13.388613 -1.710505
18.077684 13.434550 -1.773880
19.149790 13.497734 -1.845203
19.697802 13.516699 -1.881493
26.055820 15.568007 -2.390507
26.436367 14.906856 -2.390285
21.340601 10.994707 -1.890700
21.349890 10.662128 -1.879503
22.846596 10.008730 -1.964447
25.385891 9.998379 -2.148834
28.621643 10.044024 -2.388958
28.863064 9.320879 -2.388802
16.604872 4.010078 -1.345365
16.556738 3.778926 -1.337513
16.596504 3.135000 -1.330226
16.661118 2.930801 -1.332346
16.834751 2.743730 -1.343370
17.637123 2.647363 -1.404633
30.205578 2.608769 -2.387796
30.235518 2.228965 -2.387762
30.260733 1.848789 -2.387731
30.281166 1.468379 -2.387701
30.296921 1.087637 -2.387674
30.314083 0.325957 -2.387627
30.315554 -0.055059 -2.387607
30.304131 -0.816953 -2.387573
30.273760 -1.578223 -2.387550
30.224358 -2.338574 -2.387535
30.192543 -2.718203 -2.387532
30.155947 -3.097402 -2.387531
30.114691 -3.476113 -2.387532
30.017904 -4.231855 -2.387541
29.962547 -4.608789 -2.387549
27.879707 -5.371211 -2.236140
27.736366 -6.070254 -2.236175
27.658138 -6.418359 -2.236196
27.575596 -6.765508 -2.236219
27.397499 -7.456582 -2.236272
27.202196 -8.142988 -2.236334
27.098122 -8.484355 -2.236368
26.877228 -9.163008 -2.236443
26.639467 -9.835938 -2.236526
26.514259 -10.170117 -2.236571
26.384977 -10.502753 -2.236618
25.819145 -11.037031 -2.211477
24.528881 -11.222774 -2.124460
24.912678 -12.554667 -2.197148
19.315109 -10.974277 -2.112562
10.012785 -5.856543 -1.103097
9.885742 -5.950254 -1.097253
16.282202 -10.656425 -1.850516
16.148281 -10.861035 -1.850662
15.731591 -10.870371 -1.818422
14.939882 -10.888027 -1.757991
14.563222 -10.896347 -1.729648
12.894533 -10.428555 -1.577061
12.977749 -10.768417 -1.603660
12.659739 -10.776015 -1.580974
12.152441 -11.160937 -1.569079
12.022407 -11.323261 -1.570539
11.614326 -11.796113 -1.574236
10.039823 -10.723125 -1.396919
10.064243 -11.305781 -1.439390
10.018592 -11.840800 -1.474988
10.025583 -12.155644 -1.498393
9.507915 -11.827695 -1.443153
9.486430 -12.109511 -1.462848
8.823810 -12.511093 -1.455890
8.593924 -12.516191 -1.443799
8.370499 -12.525253 -1.432598
8.148095 -12.530507 -1.421374
7.929101 -12.535664 -1.410547
6.593382 -10.719687 -1.196800
7.288005 -12.545136 -1.379694
7.081251 -12.549726 -1.370306
6.093462 -11.123379 -1.206112
6.675897 -12.558672 -1.352534
6.477080 -12.563086 -1.344134
5.705002 -12.580195 -1.313595
4.888490 -11.150078 -1.157757
4.407058 -11.180078 -1.142807
3.930027 -11.188828 -1.127743
4.252759 -12.612402 -1.265737
3.535625 -12.533554 -1.238411
3.470081 -12.920449 -1.272228
3.525780 -15.427578 -1.504928
3.807693 -23.321289 -2.247125
0.538884 -7.281445 -0.694337
0.447075 -7.283379 -0.693930
0.078113 -7.080430 -0.673366
-0.010870 -7.079922 -0.673277
-0.099846 -7.079414 -0.673295
-0.277880 -7.078379 -0.673647
-0.366993 -7.077851 -0.673984
-0.456212 -7.077343 -0.674428
-0.635072 -7.076308 -0.675637
-0.724769 -7.075781 -0.676403
-0.814685 -7.075254 -0.677278
-0.904851 -7.074727 -0.678264
-0.995291 -7.074199 -0.679358
-1.177123 -7.073144 -0.681884
-1.360429 -7.072090 -0.684862
-1.452713 -7.071543 -0.686523
-1.545460 -7.071015 -0.688302
-1.638705 -7.070449 -0.690200
-1.826818 -7.069375 -0.694356
-1.921755 -7.068809 -0.696620
-2.113578 -7.067695 -0.701525
-2.210537 -7.067129 -0.704170
-2.308241 -7.066562 -0.706949
-2.406738 -7.066035 -0.709860
-2.809462 -7.063691 -0.722910
-3.121941 -7.061894 -0.734253
-3.228354 -7.061289 -0.738350
-3.335971 -7.060664 -0.742609
-4.010368 -7.056719 -0.771861
-4.247632 -7.055332 -0.783141
-4.492095 -7.053886 -0.795267
-4.617222 -7.053164 -0.801663
-4.744406 -7.052441 -0.808293
-4.873725 -7.051660 -0.815162
-5.037104 -7.095723 -0.827507
-5.275129 -7.048789 -0.837233
-5.414016 -7.047949 -0.845152
-5.699933 -7.046269 -0.861860
-5.847221 -7.045410 -0.870673
-6.151143 -7.043593 -0.889280
-6.308073 -7.042675 -0.899101
-6.468535 -7.041718 -0.909286
-6.800768 -7.039746 -0.930816
-7.149326 -7.037695 -0.954006
-7.706616 -7.034394 -0.992259
-7.902550 -7.033242 -1.006027
-8.104036 -7.032051 -1.020345
-9.206115 -7.025547 -1.101271
-9.448113 -7.024121 -1.119569
-9.957297 -7.021113 -1.158625
-10.225520 -7.019551 -1.179477
-10.515790 -7.026015 -1.202676
-10.804386 -7.024082 -1.225490
-11.740535 -7.017754 -1.300724
-12.078857 -7.015449 -1.328332
-13.186698 -7.008008 -1.420084
-14.460886 -6.999473 -1.527785
-14.929913 -6.996308 -1.567926
-15.974189 -7.001601 -1.658586
-16.491552 -6.982617 -1.703059
-19.081196 -6.970586 -1.931825
-18.160053 -6.121387 -1.822416
-21.512337 -6.951543 -2.149887
-22.965239 -6.165449 -2.261231
-23.182846 -5.295781 -2.261383
-23.248068 -5.004062 -2.261430
-24.416948 -4.616933 -2.363104
-25.007790 -4.403809 -2.414731
-25.111458 -3.774082 -2.414814
-25.157274 -3.458281 -2.414853
-25.199165 -3.141895 -2.414890
-25.270905 -2.507676 -2.414957
-25.300703 -2.189922 -2.414988
-25.326550 -1.871836 -2.415017
-25.348362 -1.553457 -2.415044
-25.366135 -1.234746 -2.415069
-9.760386 -0.229434 -0.928429
-9.584313 -0.104824 -0.911482
-9.519402 0.135156 -0.905345
-9.668913 0.258848 -0.919803
-25.363333 1.317480 -2.415198
-25.344873 1.636113 -2.415205
-25.322294 1.954492 -2.415210
-25.295811 2.272539 -2.415213
-25.265289 2.590293 -2.415214
-25.192146 3.224433 -2.415210
-25.149609 3.540723 -2.415205
-25.052525 4.171660 -2.415189
-24.939518 4.799863 -2.415165
-24.740349 5.736387 -2.415115
-24.505835 6.664609 -2.415046
-24.330061 7.278242 -2.414990
-24.236382 7.583301 -2.414959
-23.473785 9.682148 -2.414689
-23.349823 9.976211 -2.414643
-23.222147 10.268691 -2.414595
-23.090799 10.559492 -2.414545
-22.955788 10.848613 -2.414493
-22.817095 11.135957 -2.414439
-22.674860 11.421562 -2.414383
-22.528975 11.705332 -2.414325
-22.226587 12.267168 -2.414204
-22.070097 12.545176 -2.414141
-21.235773 13.904375 -2.413798
-20.878313 14.432812 -2.413648
-20.694643 14.693535 -2.413571
-20.317451 15.207930 -2.413410
-20.124050 15.461523 -2.413328
-19.727730 15.961288 -2.413157
-19.524868 16.207363 -2.413069
-18.683012 17.165371 -2.412702
-18.020525 17.855215 -2.412410
-17.564653 18.300957 -2.412207
-17.332506 18.519413 -2.412103
-16.860134 18.947500 -2.411892
-15.380629 20.158144 -2.411222
-15.125376 20.348808 -2.411106
-14.867740 20.536327 -2.410988
-14.345496 20.901405 -2.410748
-14.080997 21.078945 -2.410627
-13.814280 21.253202 -2.410504
-13.545391 21.423964 -2.410380
-13.274404 21.591406 -2.410254
-12.170136 22.226406 -2.409740
-11.889204 22.376328 -2.409609
-11.606438 22.522753 -2.409477
-11.321851 22.665546 -2.409344
-11.035505 22.804785 -2.409209
-10.457699 23.072323 -2.408937
-9.578990 23.446074 -2.408522
-9.283064 23.563261 -2.408382
-8.386811 23.892147 -2.407955
-6.867910 24.364258 -2.407229
-6.560778 24.447109 -2.407081
-5.943587 24.601328 -2.406784
-5.322761 24.739746 -2.406484
-4.385663 24.918182 -2.406030
-2.495121 25.168066 -2.405108
-2.178496 25.195839 -2.404953
-0.591853 25.274727 -2.404173
0.043518 25.278299 -2.403859
0.361162 25.274101 -2.403702
0.996095 25.253691 -2.403387
2.263169 25.165096 -2.402756
3.209471 25.057051 -2.402283
3.523864 25.013105 -2.402125
3.837672 24.965157 -2.401968
5.396008 24.666817 -2.401182
6.013437 24.520273 -2.400870
6.932045 24.271484 -2.400403
7.236042 24.180859 -2.400248
7.414505 23.689081 -2.360501
8.745868 21.977480 -2.249371
9.022985 21.869745 -2.249777
9.844687 21.522364 -2.250642
10.115048 21.398438 -2.250794
10.650383 21.138985 -2.250951
10.914824 21.002695 -2.250877
11.176932 20.862108 -2.250682
11.436707 20.717226 -2.250380
11.694020 20.568144 -2.249970
12.684309 19.909941 -2.244938
13.665529 19.242989 -2.244419
14.143209 18.891289 -2.244164
14.736216 18.685528 -2.263010
16.717455 18.657362 -2.382280
17.726082 17.886854 -2.394742
17.948559 17.661835 -2.394621
15.823547 14.438046 -2.037007
15.831367 14.084687 -2.015068
16.216738 13.367324 -1.998521
17.108017 13.394316 -2.066211
17.581800 13.412304 -2.102909
18.080095 13.436347 -2.142139
20.386702 14.756465 -2.393268
20.749338 14.238261 -2.393063
20.925747 13.975820 -2.392962
21.033855 13.668945 -2.385488
21.268646 13.444433 -2.392766
21.598091 12.904590 -2.392575
21.757710 12.631660 -2.392482
21.913887 12.356757 -2.392391
22.066616 12.079980 -2.392302
22.361626 11.520741 -2.392127
22.503847 11.238418 -2.392043
22.701347 10.632891 -2.383865
22.050886 9.992285 -2.302197
23.161234 9.801465 -2.391644
23.621901 8.624297 -2.391357
23.727512 8.326543 -2.391289
23.927954 7.727187 -2.391160
24.200396 6.819297 -2.390979
16.249237 3.924140 -1.589658
16.251450 3.494961 -1.580776
16.254179 3.070273 -1.573039
16.937239 2.542363 -1.628705
18.493340 2.538730 -1.775137
20.010910 2.491250 -1.917646
24.981113 2.791621 -2.390388
25.042717 2.162871 -2.390326
25.067612 1.847930 -2.390297
25.124878 -0.677344 -2.390141
25.099653 -1.308516 -2.390121
25.081211 -1.623848 -2.390114
25.002089 -2.568027 -2.390105
24.967842 -2.882051 -2.390106
24.929672 -3.195586 -2.390109
24.841583 -3.821113 -2.390121
24.791725 -4.133008 -2.390129
23.207348 -4.774238 -2.253143
22.995840 -5.032773 -2.238571
22.862495 -5.609160 -2.238608
22.714731 -6.182070 -2.238652
22.376484 -7.316035 -2.238761
22.283115 -7.596738 -2.238793
22.085850 -8.154590 -2.238862
21.874668 -8.707402 -2.238938
21.763891 -8.981757 -2.238979
21.649738 -9.254745 -2.239022
21.532152 -9.526230 -2.239066
21.286825 -10.064746 -2.239160
21.159136 -10.331778 -2.239209
21.028093 -10.597109 -2.239260
17.838627 -9.263965 -2.240905
13.255860 -7.312773 -1.687771
13.259574 -7.533652 -1.700167
10.012827 -5.856543 -1.293200
9.885825 -5.950293 -1.286354
17.055082 -10.559766 -2.236321
16.598085 -10.567656 -2.193639
16.148310 -10.861074 -2.169593
15.329127 -10.879434 -2.095618
14.940013 -10.888144 -2.060967
12.688159 -10.528125 -1.838068
11.780715 -10.549726 -1.763006
11.465024 -10.798301 -1.755832
10.915875 -10.811523 -1.712816
10.019099 -10.175899 -1.592042
9.492826 -10.397773 -1.569609
9.414617 -10.847519 -1.601277
9.182858 -10.853046 -1.584933
8.999816 -10.911914 -1.576883
8.547254 -11.197695 -1.570478
8.411427 -11.311660 -1.571518
7.994457 -11.643046 -1.574545
6.607854 -10.446757 -1.378081
7.102949 -12.226562 -1.576390
6.949677 -12.316464 -1.576601
6.093467 -11.123418 -1.413951
9.226749 -17.896425 -2.244722
6.086614 -12.571777 -1.557175
5.894753 -12.576035 -1.548401
5.705006 -12.580235 -1.539969
4.888495 -11.150098 -1.357278
5.147582 -12.592597 -1.516636
4.407162 -11.180351 -1.339780
4.086697 -11.183339 -1.327407
3.930129 -11.189101 -1.322123
4.252759 -12.612441 -1.483866
3.452905 -11.159023 -1.302252
3.535630 -12.533593 -1.451832
3.486754 -13.665820 -1.572335
3.576021 -17.682402 -2.011217
3.498207 -19.853613 -2.247454
3.248614 -19.897030 -2.247575
2.747831 -19.974531 -2.247819
2.496738 -20.008574 -2.247941
1.993315 -20.067226 -2.248187
0.447075 -7.283379 -0.813518
0.345397 -7.081875 -0.790460
0.256215 -7.081347 -0.789980
0.167129 -7.080840 -0.789625
0.078112 -7.080312 -0.789395
-0.010869 -7.079804 -0.789291
-0.188838 -7.078769 -0.789456
-0.456203 -7.077227 -0.790640
-0.545553 -7.076699 -0.791286
-0.724756 -7.075664 -0.792956
-1.086021 -7.073555 -0.797835
-1.177105 -7.073027 -0.799381
-1.268558 -7.072480 -0.801060
-1.360409 -7.071972 -0.802873
-1.452691 -7.071425 -0.804820
-1.545435 -7.070898 -0.806906
-1.826785 -7.069258 -0.814004
-1.921724 -7.068691 -0.816657
-2.113544 -7.067578 -0.822405
-2.210500 -7.067011 -0.825507
-2.308203 -7.066445 -0.828764
-2.606223 -7.064746 -0.839493
-2.912502 -7.062988 -0.851730
-3.016643 -7.062402 -0.856160
-3.228297 -7.061152 -0.865576
-3.335913 -7.060527 -0.870569
-3.444792 -7.059883 -0.875758
-3.555000 -7.059238 -0.881152
-3.666590 -7.058594 -0.886753
-4.010295 -7.056582 -0.904860
-4.617139 -7.053027 -0.939798
-4.873633 -7.051523 -0.955621
-5.037005 -7.095586 -0.970093
-5.138956 -7.049785 -0.972587
-5.275288 -7.048984 -0.981546
-5.997761 -7.044726 -1.031459
-6.308274 -7.042891 -1.054078
-6.468745 -7.041934 -1.066020
-6.632916 -7.040977 -1.078407
-6.973134 -7.038965 -1.104601
-7.149572 -7.037910 -1.118450
-7.516200 -7.035761 -1.147770
-7.706883 -7.034629 -1.163298
-7.902834 -7.033496 -1.179439
-8.104328 -7.032285 -1.196225
-8.311682 -7.031094 -1.213693
-8.525191 -7.029824 -1.231873
-9.206475 -7.025820 -1.291104
-9.698723 -7.022910 -1.334955
-9.957700 -7.021406 -1.358349
-10.225947 -7.019863 -1.382797
-10.515980 -7.026172 -1.409962
-10.804583 -7.024219 -1.436708
-11.416169 -7.020098 -1.494092
-13.186971 -7.008144 -1.664845
-13.591293 -7.005391 -1.704640
-14.461213 -6.999609 -1.791112
-14.930260 -6.996445 -1.838169
-17.080471 -6.980136 -2.057062
-18.371338 -6.974199 -2.190720
-19.284815 -6.231719 -2.259409
-19.436213 -5.745390 -2.259508
-19.507282 -5.500840 -2.259556
-19.575243 -5.255293 -2.259602
-19.701923 -4.761875 -2.259690
-20.296886 -4.636465 -2.321060
-21.158195 -4.554297 -2.412820
-21.266657 -4.021191 -2.412901
-21.361689 -3.485566 -2.412975
-21.404083 -3.216914 -2.413010
-21.443119 -2.947734 -2.413043
-21.510960 -2.407871 -2.413104
-21.539799 -2.137422 -2.413132
-21.565172 -1.866582 -2.413158
-21.587152 -1.595488 -2.413183
-8.867900 -0.543379 -0.990482
-8.732461 -0.095508 -0.973586
-8.725124 0.123848 -0.972807
-8.741932 0.234023 -0.974931
-8.761895 0.344824 -0.977564
-21.583334 1.665898 -2.413347
-21.560722 1.936992 -2.413350
-21.472361 2.748242 -2.413347
-21.436092 3.017871 -2.413343
-21.353359 3.555684 -2.413329
-21.087402 4.889414 -2.413266
-20.814375 5.942539 -2.413184
-20.737854 6.203633 -2.413160
-20.658031 6.463691 -2.413134
-20.398954 7.237441 -2.413045
-20.306110 7.493105 -2.413012
-20.110798 8.000859 -2.412941
-20.008347 8.252812 -2.412904
-19.448915 9.492089 -2.412690
-19.327702 9.735547 -2.412643
-19.203457 9.977500 -2.412594
-19.076147 10.217813 -2.412543
-18.945831 10.456504 -2.412491
-17.950851 12.078515 -2.412081
-17.797155 12.303262 -2.412017
-17.640669 12.525195 -2.411951
-17.481386 12.745507 -2.411883
-16.987087 13.394179 -2.411672
-16.816908 13.606230 -2.411599
-16.644072 13.816054 -2.411524
-16.109936 14.432187 -2.411291
-15.741078 14.831523 -2.411129
-15.552910 15.027617 -2.411046
-15.362305 15.221347 -2.410962
-15.169279 15.412656 -2.410876
-14.776064 15.787910 -2.410701
-14.575933 15.971699 -2.410611
-14.373527 16.153027 -2.410521
-13.961970 16.507929 -2.410335
-13.541624 16.852245 -2.410145
-12.454103 17.665644 -2.409649
-12.005200 17.971542 -2.409442
-11.777886 18.120195 -2.409338
-11.548741 18.265976 -2.409232
-10.850581 18.685760 -2.408908
-10.614414 18.819843 -2.408798
-10.137146 19.078905 -2.408576
-9.896137 19.203808 -2.408463
-9.653563 19.325819 -2.408349
-8.916975 19.673086 -2.408003
-8.668631 19.782637 -2.407886
-8.418930 19.889004 -2.407768
-8.167925 19.992285 -2.407649
-7.915653 20.092382 -2.407529
-7.662138 20.189159 -2.407409
-7.407512 20.282890 -2.407288
-6.894691 20.460625 -2.407043
-6.377636 20.625254 -2.406796
-5.594823 20.847734 -2.406420
-5.332106 20.915274 -2.406294
-4.804289 21.040487 -2.406039
-4.539239 21.098066 -2.405911
-4.273540 21.152363 -2.405783
-4.007158 21.203222 -2.405654
-3.740183 21.250723 -2.405524
-3.204586 21.335703 -2.405264
-2.936060 21.373144 -2.405133
-2.667079 21.407167 -2.405002
-2.128017 21.465117 -2.404738
-1.587720 21.509453 -2.404473
0.037122 21.560781 -2.403673
0.578894 21.550606 -2.403405
0.849633 21.540430 -2.403270
1.120186 21.526815 -2.403136
1.660655 21.489433 -2.402867
1.930470 21.465683 -2.402732
3.005949 21.336817 -2.402194
3.273665 21.296190 -2.402060
3.540839 21.252148 -2.401925
3.807406 21.204784 -2.401791
4.338639 21.100058 -2.401523
4.603195 21.042734 -2.401390
5.130013 20.918026 -2.401123
5.392173 20.850721 -2.400990
6.173237 20.629257 -2.400592
6.945257 20.378593 -2.400198
7.200428 20.288574 -2.400067
7.958736 19.999493 -2.399678
8.208983 19.896835 -2.399549
8.457935 19.791073 -2.399420
8.705502 19.682148 -2.399293
8.951683 19.570194 -2.399165
9.196420 19.455097 -2.399039
9.681458 19.215839 -2.398787
9.921648 19.091640 -2.398661
10.160258 18.964472 -2.398537
10.397245 18.834335 -2.398413
10.632555 18.701132 -2.398290
11.556486 18.139608 -2.397805
11.782932 17.992109 -2.397686
12.007520 17.841700 -2.397567
12.230169 17.688555 -2.397449
12.669617 17.373926 -2.397216
13.313564 16.881561 -2.396872
13.524040 16.712187 -2.396760
14.142396 16.188280 -2.396427
14.344055 16.008535 -2.396319
15.505157 14.878593 -2.395687
15.872838 14.483007 -2.395485
16.052929 14.281816 -2.395386
16.230463 14.078300 -2.395288
16.577833 13.664902 -2.395095
17.079096 13.028828 -2.394815
17.240820 12.812656 -2.394724
17.399826 12.594531 -2.394634
17.556074 12.374413 -2.394546
18.008091 11.702617 -2.394289
18.295238 11.245566 -2.394123
18.434509 11.014414 -2.394042
18.834721 10.310703 -2.393809
19.663666 8.614336 -2.393313
19.769840 8.366347 -2.393248
19.972797 7.866386 -2.393122
20.069580 7.614609 -2.393061
20.424877 6.595898 -2.392834
20.657635 5.820996 -2.392679
16.196123 4.127461 -1.863315
16.194809 3.482773 -1.846739
16.193014 3.270000 -1.841700
16.190969 3.058359 -1.836952
16.192028 2.848320 -1.832866
16.791782 2.520547 -1.892983
19.990383 2.488672 -2.245808
21.377504 1.846309 -2.392121
21.398811 1.577539 -2.392097
21.416773 1.308496 -2.392075
21.442480 0.769863 -2.392034
21.450314 0.500254 -2.392017
21.453535 -0.308613 -2.391974
21.438847 -0.847617 -2.391954
21.391474 -1.655137 -2.391936
21.313869 -2.460195 -2.391933
21.281288 -2.727871 -2.391936
21.117579 -3.793808 -2.391963
21.068329 -4.058906 -2.391973
20.466206 -4.749414 -2.342287
19.390322 -5.277383 -2.240341
19.251938 -5.763086 -2.240385
19.178192 -6.004590 -2.240409
18.938923 -6.723457 -2.240490
18.764486 -7.197539 -2.240552
18.578255 -7.667051 -2.240621
18.480726 -7.900019 -2.240657
18.380310 -8.131797 -2.240695
18.276978 -8.362285 -2.240734
18.170776 -8.591445 -2.240775
13.274311 -7.106777 -1.926269
13.223502 -7.294902 -1.932045
10.012869 -5.856601 -1.483993
14.295358 -10.145781 -2.242611
14.167072 -10.324843 -2.242666
12.919521 -10.182929 -2.104483
12.431156 -10.314863 -2.066520
12.126821 -10.322324 -2.037335
11.830900 -10.329629 -2.009269
10.938574 -10.565039 -1.945536
10.414551 -10.577559 -1.899027
9.436607 -10.600761 -1.815661
9.205173 -10.606211 -1.796637
8.659346 -10.772051 -1.768151
8.510427 -10.863613 -1.765481
8.085802 -10.873808 -1.733556
7.676000 -10.883613 -1.703817
7.476254 -10.888379 -1.689721
7.279744 -10.893066 -1.676116
6.665647 -10.250703 -1.564263
6.641808 -10.798457 -1.621862
6.434837 -11.076465 -1.638803
6.252270 -11.080507 -1.627645
6.072152 -11.084473 -1.616892
5.718811 -11.092285 -1.596556
5.374041 -11.099902 -1.577708
4.932259 -11.249961 -1.571470
4.552815 -11.137558 -1.539299
4.391693 -11.141132 -1.532045
4.232053 -11.144668 -1.525094
4.073841 -11.148183 -1.518450
3.916973 -11.151660 -1.512099
3.454387 -12.245585 -1.627737
3.470317 -12.921348 -1.711630
3.486880 -13.666308 -1.804368
3.505344 -14.496875 -1.908056
3.549486 -16.482265 -2.156948
3.482528 -17.220118 -2.247596
3.048943 -17.303846 -2.247806
2.613350 -17.376659 -2.248018
2.394881 -17.408905 -2.248124
2.176028 -17.438477 -2.248230
1.737243 -17.489277 -2.248445
0.630815 -7.279492 -0.934775
0.538883 -7.281425 -0.934082
0.447074 -7.283359 -0.933536
0.345393 -7.081758 -0.907062
0.167127 -7.080722 -0.906106
0.078108 -7.080195 -0.905843
-0.010869 -7.079687 -0.905723
-0.188835 -7.078652 -0.905911
-0.456198 -7.077109 -0.907271
-0.995259 -7.073965 -0.913904
-1.268538 -7.072363 -0.919227
-1.360388 -7.071856 -0.921308
-1.545411 -7.070781 -0.925936
-1.732422 -7.069687 -0.931202
-1.826758 -7.069140 -0.934079
-1.921696 -7.068574 -0.937124
-2.406660 -7.065801 -0.954934
-2.505984 -7.065195 -0.959038
-2.809371 -7.063418 -0.972490
-3.121839 -7.061640 -0.987749
-3.335856 -7.060410 -0.998988
-3.444735 -7.059746 -1.004945
-3.666528 -7.058457 -1.017560
-3.779561 -7.057793 -1.024231
-4.127993 -7.055761 -1.045788
-4.744228 -7.052129 -1.087345
-5.275444 -7.049180 -1.126387
-5.414342 -7.048379 -1.137041
-5.555911 -7.047519 -1.148079
-5.847583 -7.045820 -1.171378
-6.308479 -7.043105 -1.209626
-6.973368 -7.039179 -1.267606
-7.516460 -7.035996 -1.317150
-7.903121 -7.033731 -1.353492
-8.745582 -7.028828 -1.435395
-8.972548 -7.027480 -1.458036
-9.206837 -7.026113 -1.481641
-9.448870 -7.024707 -1.506265
-9.699119 -7.023242 -1.531966
-10.226386 -7.020156 -1.586870
-10.804783 -7.024336 -1.648697
-11.416384 -7.020215 -1.714552
-12.801293 -7.010859 -1.867206
-13.187256 -7.008262 -1.910504
-13.591584 -7.005547 -1.956171
-14.461540 -6.999765 -2.055403
-14.930613 -6.996641 -2.109410
-15.973107 -7.001132 -2.231122
-16.252363 -6.881348 -2.257877
-16.337921 -6.676738 -2.257930
-16.420919 -6.470996 -2.257981
-16.579086 -6.056602 -2.258080
-16.654245 -5.847851 -2.258128
-16.796629 -5.427715 -2.258220
-16.863844 -5.216250 -2.258264
-16.990229 -4.791055 -2.258348
-17.320604 -4.650000 -2.294310
-18.149294 -4.628750 -2.396183
-18.376316 -4.197813 -2.411463
-18.476580 -3.734726 -2.411536
-18.522333 -3.502324 -2.411571
-18.604979 -3.035742 -2.411635
-18.675869 -2.567324 -2.411694
-18.782045 -1.625723 -2.411795
-8.529673 -0.522695 -1.093259
-8.487916 -0.413164 -1.087154
-8.448610 -0.304863 -1.081545
-8.429235 -0.198145 -1.078659
-8.398172 0.013730 -1.074389
-8.407303 0.119395 -1.075663
-8.436502 0.332031 -1.080127
-18.777981 1.686992 -2.411961
-18.729656 2.158359 -2.411962
-18.669445 2.628398 -2.411956
-18.634886 2.862793 -2.411951
-18.417967 4.027246 -2.411902
-18.365835 4.258359 -2.411889
-18.191864 4.947519 -2.411838
-18.061487 5.402988 -2.411796
-17.991985 5.629511 -2.411773
-17.919638 5.855039 -2.411749
-17.844467 6.079804 -2.411723
-17.601976 6.747793 -2.411638
-17.426386 7.187851 -2.411573
-17.142326 7.839258 -2.411466
-17.042168 8.053926 -2.411427
-16.614801 8.899414 -2.411259
-16.501343 9.107383 -2.411214
-16.266605 9.518808 -2.411119
-16.145372 9.722324 -2.411069
-16.021576 9.924199 -2.411018
-15.895251 10.124531 -2.410966
-15.766414 10.323281 -2.410912
-15.085271 11.291582 -2.410625
-14.795959 11.666523 -2.410501
-14.647797 11.851231 -2.410437
-14.497308 12.034081 -2.410372
-14.189512 12.393887 -2.410238
-13.711082 12.918828 -2.410028
-13.547245 13.089667 -2.409956
-13.381269 13.258554 -2.409883
-13.213181 13.425195 -2.409808
-12.696548 13.912382 -2.409578
-12.520308 14.070332 -2.409498
-12.161931 14.379609 -2.409337
-11.233007 15.112266 -2.408915
-11.041816 15.251719 -2.408828
-10.848867 15.388652 -2.408739
-10.060403 15.911972 -2.408376
-9.656590 16.158535 -2.408189
-9.039597 16.509043 -2.407902
-8.621146 16.729649 -2.407706
-8.409868 16.835997 -2.407608
-7.768331 17.138906 -2.407306
-7.552019 17.234413 -2.407204
-7.334521 17.327187 -2.407101
-6.896161 17.504570 -2.406893
-6.675342 17.589102 -2.406789
-6.006843 17.825840 -2.406470
-5.782099 17.899139 -2.406363
-5.556445 17.969589 -2.406255
-5.329963 18.037128 -2.406146
-5.102635 18.101875 -2.406037
-4.874529 18.163750 -2.405928
-4.645671 18.222754 -2.405818
-4.416098 18.278887 -2.405707
-3.723482 18.429726 -2.405372
-3.491408 18.474199 -2.405260
-3.025740 18.554413 -2.405034
-2.792194 18.590078 -2.404920
-2.558244 18.622812 -2.404806
-2.323895 18.652636 -2.404692
-2.089209 18.679453 -2.404577
-1.854219 18.703300 -2.404462
-1.147748 18.757187 -2.404116
-0.675933 18.778301 -2.403884
-0.439869 18.784433 -2.403767
0.032345 18.787695 -2.403534
0.504444 18.779140 -2.403300
0.740367 18.770351 -2.403183
1.211740 18.744101 -2.402949
1.447129 18.726425 -2.402832
1.917113 18.682304 -2.402597
2.151622 18.655859 -2.402480
2.852865 18.558750 -2.402128
3.085725 18.520508 -2.402011
3.318054 18.479414 -2.401894
3.549854 18.435410 -2.401778
3.781062 18.388397 -2.401661
4.241581 18.285761 -2.401428
4.470828 18.230116 -2.401312
4.699338 18.171679 -2.401196
4.927083 18.110292 -2.401080
5.154050 18.046074 -2.400965
5.380156 17.979004 -2.400850
5.605404 17.909180 -2.400735
5.829739 17.836426 -2.400620
6.053130 17.760878 -2.400506
7.154775 17.341660 -2.399940
7.371799 17.249609 -2.399828
7.802260 17.057264 -2.399606
8.438486 16.748749 -2.399275
8.855948 16.529980 -2.399058
9.062562 16.416523 -2.398950
9.267736 16.300663 -2.398843
9.673613 16.061230 -2.398630
10.073327 15.811563 -2.398420
10.270770 15.683085 -2.398315
10.466594 15.552090 -2.398212
10.660743 15.418711 -2.398109
10.853198 15.282832 -2.398007
11.043937 15.144649 -2.397906
11.605471 14.715761 -2.397606
11.970674 14.418242 -2.397411
12.150421 14.266074 -2.397314
12.328261 14.111718 -2.397218
12.678005 13.796367 -2.397029
13.187506 13.307168 -2.396753
13.678175 12.799179 -2.396484
13.994488 12.450429 -2.396310
14.452307 11.912851 -2.396057
14.746127 11.545097 -2.395893
15.169284 10.979980 -2.395655
15.699870 10.202578 -2.395353
15.826357 10.004238 -2.395280
15.950356 9.804257 -2.395209
16.190756 9.399746 -2.395069
16.532108 8.782070 -2.394869
16.746790 8.363320 -2.394742
16.950806 7.939453 -2.394619
17.236763 7.294355 -2.394445
17.326653 7.076953 -2.394390
17.498268 6.639043 -2.394283
17.579931 6.418477 -2.394231
17.734955 5.974355 -2.394132
17.878784 5.526543 -2.394038
17.946489 5.301328 -2.393993
16.819399 4.286231 -2.220497
18.242413 4.163613 -2.393789
18.293015 3.933926 -2.393752
18.427507 3.241543 -2.393651
16.788107 2.736094 -2.176061
16.786354 2.519707 -2.171557
18.618052 1.844004 -2.393485
18.639568 1.609922 -2.393462
18.658171 1.375430 -2.393441
18.673841 1.140879 -2.393422
18.686550 0.906152 -2.393404
18.696335 0.671250 -2.393387
18.707058 0.201113 -2.393358
18.706022 -0.269043 -2.393334
18.682398 -0.973945 -2.393310
18.668631 -1.208613 -2.393305
18.609776 -1.911406 -2.393298
18.524538 -2.611543 -2.393305
18.370146 -3.539082 -2.393334
18.275572 -3.999707 -2.393357
18.169514 -4.457793 -2.393386
17.439262 -4.746308 -2.312182
16.847910 -4.813555 -2.241621
16.786230 -5.024981 -2.241641
16.721914 -5.235586 -2.241662
16.654966 -5.445332 -2.241684
16.585409 -5.654297 -2.241708
16.513222 -5.862324 -2.241733
16.113546 -6.888144 -2.241879
15.935839 -7.291132 -2.241946
15.843211 -7.490996 -2.241982
15.748058 -7.689570 -2.242018
13.139867 -7.248769 -2.167674
13.203884 -8.175273 -2.243251
12.994752 -8.504883 -2.243338
12.552038 -9.147812 -2.243524
12.199133 -9.615039 -2.243675
12.077615 -9.767832 -2.243727
11.954206 -9.919082 -2.243780
11.828880 -10.068789 -2.243834
11.554827 -10.088652 -2.215726
11.273712 -10.095683 -2.185976
10.999998 -10.102500 -2.157352
10.733313 -10.109140 -2.129798
10.420647 -10.320996 -2.118572
10.203396 -10.363066 -2.100718
9.955931 -10.369199 -2.076433
9.246226 -10.386816 -2.008702
9.019711 -10.392441 -1.987710
8.112341 -10.627930 -1.931292
7.906575 -10.632773 -1.913968
7.704425 -10.637539 -1.897244
7.505748 -10.642207 -1.881108
7.310417 -10.646855 -1.865540
6.929130 -10.655898 -1.836022
6.742910 -10.660293 -1.822035
6.582535 -11.009746 -1.852905
6.252406 -11.080703 -1.837810
5.894486 -11.088633 -1.813972
5.374152 -11.100117 -1.781427
5.204743 -11.103887 -1.771390
4.707423 -11.114863 -1.743577
4.384172 -11.122011 -1.726864
3.910240 -11.132481 -1.704375
3.600795 -11.139257 -1.691021
3.447832 -11.142617 -1.684820
3.505477 -14.497421 -2.154461
3.466832 -15.169667 -2.247708
3.276057 -15.212578 -2.247800
2.700658 -15.327188 -2.248079
2.314801 -15.391523 -2.248266
1.927420 -15.446133 -2.248455
1.538750 -15.491055 -2.248645
0.538882 -7.281425 -1.054671
0.345388 -7.081640 -1.024148
-0.456189 -7.076992 -1.024382
-0.545535 -7.076465 -1.025218
-0.635044 -7.075937 -1.026219
-0.814647 -7.074902 -1.028713
-0.904807 -7.074375 -1.030208
-1.085988 -7.073320 -1.033703
-1.268519 -7.072246 -1.037881
-1.360364 -7.071738 -1.040229
-1.452645 -7.071172 -1.042753
-1.826730 -7.069023 -1.054650
-1.921663 -7.068438 -1.058088
-2.210428 -7.066777 -1.069556
-2.308126 -7.066211 -1.073775
-2.505945 -7.065078 -1.082831
-2.606138 -7.064492 -1.087675
-2.809321 -7.063301 -1.098019
-2.912404 -7.062734 -1.103528
-3.016541 -7.062148 -1.109269
-3.228187 -7.060898 -1.121468
-3.444675 -7.059629 -1.134662
-3.554878 -7.058984 -1.141649
-4.127918 -7.055625 -1.180777
-4.368687 -7.054199 -1.198541
-4.616967 -7.052754 -1.217629
-4.873449 -7.051250 -1.238129
-5.036808 -7.095293 -1.256877
-5.139264 -7.050195 -1.260233
-5.847765 -7.046015 -1.322643
-6.151727 -7.044238 -1.350912
-6.801442 -7.040469 -1.414015
-7.331017 -7.037363 -1.467885
-7.707428 -7.035156 -1.507363
-7.903399 -7.034004 -1.528280
-8.745914 -7.029082 -1.620764
-8.972897 -7.027754 -1.646330
-9.699515 -7.023496 -1.729812
-10.516356 -7.026406 -1.826921
-11.741218 -7.018164 -1.975868
-13.187523 -7.008437 -2.157191
-13.591877 -7.005723 -2.208757
-14.062962 -6.806875 -2.256798
-14.230212 -6.451543 -2.256899
-14.388477 -6.092148 -2.256996
-14.464200 -5.910976 -2.257042
-14.537642 -5.728887 -2.257088
-14.608775 -5.545820 -2.257132
-14.677591 -5.361972 -2.257176
-14.744102 -5.177129 -2.257218
-14.870079 -4.805117 -2.257299
-15.702014 -4.641543 -2.365126
-16.060106 -4.528691 -2.410302
-16.116011 -4.326602 -2.410339
-16.169348 -4.123828 -2.410376
-16.268339 -3.716230 -2.410446
-16.313999 -3.511562 -2.410479
-16.357063 -3.306289 -2.410511
-16.397520 -3.100547 -2.410541
-16.470646 -2.687520 -2.410598
-16.560760 -2.064824 -2.410674
-8.267783 -0.506680 -1.196497
-8.239501 -0.401055 -1.191580
-8.212164 -0.296309 -1.186994
-8.185726 -0.089512 -1.182474
-8.180290 0.116211 -1.181737
-8.191955 0.219316 -1.183726
-8.225827 0.427344 -1.189798
-8.253498 0.532832 -1.194673
-8.279384 0.639082 -1.199488
-8.555809 0.768652 -1.240838
-16.603437 1.702246 -2.410887
-16.555397 2.119004 -2.410885
-16.527449 2.326836 -2.410882
-16.463684 2.741484 -2.410871
-16.389465 3.154277 -2.410855
-16.348467 3.360039 -2.410846
-16.304882 3.565195 -2.410835
-16.048330 4.581855 -2.410759
-15.989360 4.783105 -2.410741
-15.863845 5.183379 -2.410699
-15.728254 5.580312 -2.410652
-15.656727 5.777461 -2.410627
-15.582713 5.973750 -2.410600
-15.345922 6.556602 -2.410513
-15.175906 6.940020 -2.410448
-15.087265 7.130039 -2.410414
-14.608614 8.062735 -2.410225
-14.505877 8.245566 -2.410183
-14.400868 8.427032 -2.410141
-13.723543 9.486835 -2.409860
-13.480200 9.828340 -2.409757
-13.099298 10.328731 -2.409594
-12.968165 10.492324 -2.409538
-12.834956 10.654160 -2.409480
-12.699751 10.814394 -2.409421
-12.562554 10.972813 -2.409362
-12.423338 11.129590 -2.409301
-12.282180 11.284472 -2.409239
-12.139074 11.437656 -2.409176
-11.847161 11.738515 -2.409047
-11.698403 11.886093 -2.408981
-10.927373 12.595429 -2.408636
-10.606729 12.865293 -2.408491
-10.279455 13.127011 -2.408343
-9.946077 13.380839 -2.408191
-9.605627 13.625234 -2.408035
-9.433332 13.744394 -2.407956
-9.259559 13.861386 -2.407876
-8.550199 14.307207 -2.407548
-8.369083 14.412598 -2.407464
-8.003998 14.617773 -2.407294
-7.633556 14.813222 -2.407121
-7.258331 14.999296 -2.406945
-7.069006 15.088750 -2.406856
-6.494515 15.342813 -2.406585
-6.300950 15.422578 -2.406493
-5.910915 15.574902 -2.406308
-5.714514 15.647324 -2.406215
-5.517204 15.717324 -2.406121
-5.319050 15.784707 -2.406026
-5.120061 15.849707 -2.405931
-4.719741 15.972109 -2.405740
-3.706723 16.233671 -2.405252
-3.502275 16.278301 -2.405154
-3.091812 16.359882 -2.404955
-2.885862 16.396738 -2.404855
-2.679466 16.430996 -2.404755
-2.472665 16.462675 -2.404654
-2.265501 16.491777 -2.404553
-2.057977 16.518223 -2.404452
-1.850164 16.542070 -2.404350
-1.642060 16.563339 -2.404248
-1.433710 16.581972 -2.404146
-1.225178 16.597969 -2.404044
-1.016451 16.611366 -2.403942
-0.807582 16.622070 -2.403839
-0.389552 16.635723 -2.403633
0.237729 16.636425 -2.403323
0.864510 16.613516 -2.403012
1.489910 16.566914 -2.402701
1.697920 16.546268 -2.402597
1.905623 16.522890 -2.402493
2.113030 16.496895 -2.402389
2.526735 16.437187 -2.402181
2.938772 16.367012 -2.401974
3.959891 16.146757 -2.401458
4.162305 16.095018 -2.401356
4.364052 16.040722 -2.401253
4.565100 15.983984 -2.401151
4.765399 15.924687 -2.401049
5.163668 15.798515 -2.400846
5.361561 15.731718 -2.400744
5.949971 15.516484 -2.400443
6.144238 15.439843 -2.400343
6.529790 15.279336 -2.400144
6.720997 15.195410 -2.400045
7.660366 14.740429 -2.399558
7.844692 14.642383 -2.399462
8.027763 14.542031 -2.399366
8.390033 14.334590 -2.399176
8.746958 14.118222 -2.398989
9.098288 13.892675 -2.398804
9.271804 13.776777 -2.398712
9.443830 13.658652 -2.398621
9.614372 13.538437 -2.398531
9.783383 13.416035 -2.398441
10.116709 13.164941 -2.398263
10.443604 12.905605 -2.398089
10.604590 12.772851 -2.398002
11.077303 12.362695 -2.397748
11.231412 12.222168 -2.397665
11.383719 12.079590 -2.397582
11.534230 11.935195 -2.397500
11.829738 11.640800 -2.397339
11.974689 11.490820 -2.397260
12.535337 10.873183 -2.396951
12.670590 10.714512 -2.396876
12.803843 10.554043 -2.396802
12.935076 10.392051 -2.396729
13.316398 9.896152 -2.396515
13.560101 9.557852 -2.396378
13.678760 9.386426 -2.396310
14.021804 8.863496 -2.396114
14.239267 8.507852 -2.395988
14.344691 8.327949 -2.395927
14.647318 7.780820 -2.395750
14.743579 7.595937 -2.395693
14.929140 7.222676 -2.395582
15.018397 7.034297 -2.395529
15.105277 6.844882 -2.395476
15.189773 6.654433 -2.395424
15.428839 6.076719 -2.395277
15.576098 5.686894 -2.395184
15.646019 5.490527 -2.395140
15.713502 5.293457 -2.395096
15.778512 5.095449 -2.395054
15.841019 4.896660 -2.395013
15.901050 4.697148 -2.394973
15.958553 4.496855 -2.394935
16.066023 4.094258 -2.394861
16.163391 3.689082 -2.394792
16.208261 3.485664 -2.394760
16.250570 3.281601 -2.394728
16.362108 2.666660 -2.394642
16.394163 2.460859 -2.394616
16.423605 2.254551 -2.394591
16.515549 1.426426 -2.394503
16.532036 1.218789 -2.394484
16.557201 0.802871 -2.394451
16.571962 0.386465 -2.394422
16.576269 -0.030059 -2.394399
16.570160 -0.446699 -2.394381
16.553602 -0.862969 -2.394368
16.541426 -1.070918 -2.394363
16.489265 -1.693613 -2.394357
16.441505 -2.107539 -2.394360
16.413748 -2.313965 -2.394363
16.314983 -2.931015 -2.394380
16.276918 -3.135879 -2.394389
16.236286 -3.340156 -2.394398
16.147373 -3.747187 -2.394422
15.796616 -4.728750 -2.381817
14.757061 -4.824785 -2.242654
14.695397 -5.009961 -2.242675
14.565150 -5.377812 -2.242721
14.496570 -5.560449 -2.242745
14.425729 -5.742246 -2.242771
14.037573 -6.637227 -2.242918
12.364914 -6.421309 -2.243755
12.283408 -6.576308 -2.243788
12.199978 -6.730254 -2.243821
12.114621 -6.883125 -2.243855
10.012949 -5.856640 -1.868071
11.659463 -7.630976 -2.244042
11.562850 -7.776953 -2.244083
11.262148 -8.207754 -2.244209
11.158335 -8.348808 -2.244253
11.052755 -8.488535 -2.244298
10.945427 -8.626972 -2.244344
10.836380 -8.763946 -2.244391
10.383227 -9.298281 -2.244588
10.265799 -9.428203 -2.244640
10.026077 -9.683633 -2.244745
9.780012 -9.933085 -2.244854
9.654651 -10.055429 -2.244910
9.488025 -10.133769 -2.235601
9.257120 -10.139609 -2.211048
8.809994 -10.150859 -2.164520
8.593333 -10.156289 -2.142483
8.381005 -10.161621 -2.121218
7.948328 -10.413027 -2.109615
7.746907 -10.418027 -2.090741
7.549027 -10.422949 -2.072527
7.354519 -10.427773 -2.054943
6.789876 -10.441699 -2.005798
6.577199 -10.693378 -2.021747
6.435102 -11.076933 -2.063017
6.072403 -11.084922 -2.035435
4.871527 -11.111386 -1.953815
4.545057 -11.118554 -1.934371
4.066858 -11.129024 -1.908152
3.910246 -11.132481 -1.900166
3.754910 -11.135879 -1.892542
3.447834 -11.142617 -1.878364
3.454614 -12.246367 -2.049135
3.450733 -13.524726 -2.247800
2.595122 -13.717168 -2.248213
2.249737 -13.779140 -2.248380
1.902870 -13.832363 -2.248549
1.728957 -13.855702 -2.248634
1.554754 -13.876875 -2.248719
1.380295 -13.895820 -2.248804
0.538884 -7.281406 -1.175825
0.256203 -7.080996 -1.141085
-0.010871 -7.079453 -1.140091
-0.099840 -7.078945 -1.140120
-0.277861 -7.077910 -1.140719
-0.545528 -7.076347 -1.142972
-0.635031 -7.075820 -1.144087
-1.085971 -7.073203 -1.152432
-1.360343 -7.071621 -1.159707
-1.452620 -7.071054 -1.162521
-1.545361 -7.070527 -1.165533
-1.732366 -7.069433 -1.172163
-1.826700 -7.068887 -1.175785
-2.017200 -7.067773 -1.183662
-2.113441 -7.067207 -1.187921
-2.210393 -7.066640 -1.192402
-2.308090 -7.066074 -1.197104
-2.406579 -7.065547 -1.202037
-2.809274 -7.063183 -1.224132
-2.912354 -7.062617 -1.230275
-3.016491 -7.062012 -1.236675
-3.121729 -7.061387 -1.243339
-3.335742 -7.060137 -1.257487
-3.554815 -7.058847 -1.272774
-3.779428 -7.057539 -1.289260
-3.893964 -7.056855 -1.297975
-4.010078 -7.056191 -1.307015
-4.127846 -7.055488 -1.316393
-4.247325 -7.054785 -1.326117
-4.491766 -7.053339 -1.346648
-4.616881 -7.052617 -1.357479
-4.744049 -7.051894 -1.368703
-4.873355 -7.051152 -1.380333
-5.139418 -7.050429 -1.405045
-5.275763 -7.049648 -1.417987
-5.700637 -7.047148 -1.459698
-6.151924 -7.044512 -1.506145
-6.308883 -7.043593 -1.522781
-6.469378 -7.042636 -1.540035
-6.801673 -7.040703 -1.576503
-6.973844 -7.039687 -1.595777
-7.150300 -7.038652 -1.615784
-7.516992 -7.036504 -1.658150
-7.707710 -7.035410 -1.680584
-7.903687 -7.034258 -1.703902
-8.105225 -7.033086 -1.728157
-8.312609 -7.031875 -1.753393
-8.973247 -7.028008 -1.835522
-9.207567 -7.026660 -1.865243
-9.699914 -7.023789 -1.928603
-9.958942 -7.022265 -1.962401
-10.227252 -7.020722 -1.997727
-10.516542 -7.026504 -2.036822
-11.416811 -7.020508 -2.158365
-11.741444 -7.018320 -2.202887
-12.200654 -6.882734 -2.255874
-12.286439 -6.728965 -2.255924
-12.532166 -6.261504 -2.256070
-12.686089 -5.944863 -2.256162
-12.969758 -5.300273 -2.256335
-13.294967 -4.668320 -2.269180
-13.797295 -4.650781 -2.344755
-14.236601 -4.600449 -2.409397
-14.293518 -4.421250 -2.409434
-14.348168 -4.241328 -2.409470
-14.400537 -4.060761 -2.409505
-14.543972 -3.515176 -2.409604
-14.702927 -2.780117 -2.409720
-14.736867 -2.595098 -2.409746
-14.824646 -2.037891 -2.409818
-14.871444 -1.664668 -2.409860
-14.891322 -1.477676 -2.409879
-8.085068 -0.597500 -1.305572
-8.041656 -0.391406 -1.296564
-8.008704 -0.188242 -1.290080
-7.982004 0.013066 -1.285425
-7.989680 0.113496 -1.286790
-8.002306 0.214258 -1.289154
-8.014697 0.315430 -1.291686
-8.030457 0.417207 -1.294970
-8.051677 0.519785 -1.299342
-8.072734 0.623145 -1.303901
-8.115043 0.729141 -1.312111
-14.791805 2.272383 -2.410021
-14.762055 2.458105 -2.410016
-14.729956 2.643418 -2.410009
-14.695522 2.828320 -2.410002
-14.619679 3.196680 -2.409983
-14.578295 3.380176 -2.409972
-14.534599 3.563066 -2.409959
-14.488602 3.745469 -2.409946
-14.281710 4.468554 -2.409880
-14.038647 5.180390 -2.409796
-13.903743 5.531406 -2.409748
-13.832978 5.705722 -2.409722
-13.684902 6.051328 -2.409666
-13.607620 6.222812 -2.409636
-13.528160 6.393222 -2.409606
-13.362864 6.730977 -2.409541
-13.099077 7.229629 -2.409436
-13.006982 7.393516 -2.409399
-12.912844 7.556289 -2.409361
-12.718450 7.878183 -2.409281
-12.618227 8.037227 -2.409240
-12.516009 8.195039 -2.409197
-12.411814 8.351484 -2.409154
-12.305655 8.506680 -2.409109
-12.087507 8.812910 -2.409017
-11.975574 8.963906 -2.408969
-11.509082 9.553594 -2.408769
-11.387858 9.697227 -2.408716
-11.264852 9.839355 -2.408663
-10.885229 10.256230 -2.408496
-10.755223 10.392012 -2.408439
-10.355121 10.789219 -2.408261
-9.511431 11.536777 -2.407882
-9.365436 11.655078 -2.407816
-9.217986 11.771563 -2.407749
-8.766995 12.109609 -2.407544
-8.303584 12.430351 -2.407331
-8.146484 12.533300 -2.407259
-7.988088 12.634316 -2.407185
-7.828441 12.733339 -2.407111
-7.342249 13.018125 -2.406886
-7.177838 13.108965 -2.406809
-6.677976 13.368867 -2.406575
-6.509230 13.451328 -2.406496
-6.168711 13.609726 -2.406336
-5.996999 13.685703 -2.406255
-5.824341 13.759550 -2.406173
-5.476329 13.900566 -2.406008
-5.124906 14.032890 -2.405841
-4.770280 14.156250 -2.405672
-3.689531 14.472285 -2.405154
-3.507241 14.516992 -2.405066
-2.957244 14.637187 -2.404800
-2.772957 14.672636 -2.404711
-2.403164 14.736640 -2.404532
-2.217690 14.765117 -2.404441
-1.845781 14.815059 -2.404260
-1.659396 14.836543 -2.404169
-1.098869 14.886855 -2.403895
-0.724335 14.908593 -2.403711
-0.536909 14.915956 -2.403618
0.025695 14.923906 -2.403341
1.149586 14.876094 -2.402783
1.336386 14.859882 -2.402690
1.522965 14.841348 -2.402596
2.081041 14.771621 -2.402317
2.266425 14.743770 -2.402224
2.451437 14.713515 -2.402131
2.820221 14.646172 -2.401945
3.003933 14.609023 -2.401853
3.914613 14.388769 -2.401391
4.631951 14.171738 -2.401026
4.809504 14.111856 -2.400935
5.337383 13.918984 -2.400664
5.685077 13.779453 -2.400485
6.199740 13.553828 -2.400219
6.871948 13.223262 -2.399870
7.846900 12.665351 -2.399360
8.005157 12.565331 -2.399276
8.317840 12.359258 -2.399112
8.776873 12.035645 -2.398868
8.927141 11.924179 -2.398788
9.075989 11.810644 -2.398709
9.223390 11.695214 -2.398630
9.369328 11.578086 -2.398552
9.513786 11.459003 -2.398474
9.798144 11.215586 -2.398322
10.212952 10.837265 -2.398097
10.613211 10.443671 -2.397879
10.743297 10.309218 -2.397808
10.871682 10.173027 -2.397738
11.123286 9.896054 -2.397599
11.246438 9.755254 -2.397531
11.487414 9.468925 -2.397398
11.605183 9.323613 -2.397332
11.721122 9.176699 -2.397267
11.947444 8.878808 -2.397140
12.272633 8.421543 -2.396956
12.479784 8.110059 -2.396838
12.580414 7.952363 -2.396780
12.679057 7.793516 -2.396724
12.775706 7.633320 -2.396667
13.312685 6.648320 -2.396352
13.394891 6.480430 -2.396303
13.475004 6.311465 -2.396255
13.702529 5.798730 -2.396116
13.774065 5.625996 -2.396072
14.038374 4.926445 -2.395906
14.098943 4.749531 -2.395867
14.213403 4.393574 -2.395792
14.267297 4.214511 -2.395756
14.318917 4.034863 -2.395721
14.368284 3.854512 -2.395688
14.415407 3.673633 -2.395655
14.460239 3.492129 -2.395624
14.502790 3.310078 -2.395594
