ply
format ascii 1.0
element vertex 878
property double x
property double y
property double z
end_header
1.165818494519853 0.378797391102095 -1.580310024751381
1.212452478186693 0.393949690909255 -1.541026485551579
1.257889917638724 0.408713209933610 -1.500222139260919
1.302085971608936 0.423073378364304 -1.457937254842823
1.344997023927915 0.437016024448821 -1.414213562373095
1.386580726567735 0.450527388478791 -1.369094211857377
1.426796041434352 0.463594136369163 -1.322623730647304
1.465603280867248 0.476203372817337 -1.274847979497379
1.502964146806356 0.488342654029270 -1.225814107305953
1.538841768587627 0.500000000000000 -1.175570504584946
1.573200739329919 0.511163906336461 -1.124166755704261
1.606007150877321 0.521823355610934 -1.071653589957993
1.637228627262399 0.531967828233917 -1.018082831500743
1.666834356657377 0.541587312835687 -0.963507348203431
1.694795121781685 0.550672316146317 -0.907980999479093
1.721083328735889 0.559213872364384 -0.851558583130145
1.745673034233539 0.567203552005138 -0.794295781269561
1.768539971204061 0.574633470219376 -0.736249105369356
1.789661572741422 0.581496294574848 -0.677475840490583
1.809016994374947 0.587785252292473 -0.618033988749895
1.826587134640293 0.593494136930259 -0.557982212078459
1.842354653930286 0.598617314508310 -0.497379774329710
1.856303991607024 0.603149729068886 -0.436286482793085
1.868421381358341 0.607086907666019 -0.374762629171449
1.878694864783506 0.610424964779778 -0.312868930080462
1.887114303194708 0.613160606150797 -0.250666467128609
1.893671387622728 0.615291132031323 -0.188216626637029
1.898359647016882 0.616814439849533 -0.125581039058627
1.901174454631169 0.617729026284521 -0.062821518156257
1.902113032590307 0.618033988749895 0.000000000000000
1.901174454631169 0.617729026284521 0.062821518156257
1.898359647016882 0.616814439849533 0.125581039058627
1.893671387622728 0.615291132031323 0.188216626637029
1.887114303194708 0.613160606150797 0.250666467128609
1.878694864783506 0.610424964779778 0.312868930080462
1.868421381358341 0.607086907666019 0.374762629171449
1.856303991607024 0.603149729068886 0.436286482793085
1.842354653930286 0.598617314508310 0.497379774329710
1.826587134640293 0.593494136930259 0.557982212078459
1.809016994374947 0.587785252292473 0.618033988749895
1.789661572741422 0.581496294574848 0.677475840490583
1.768539971204061 0.574633470219376 0.736249105369356
1.745673034233539 0.567203552005138 0.794295781269561
1.721083328735889 0.559213872364384 0.851558583130145
1.694795121781685 0.550672316146317 0.907980999479093
1.666834356657377 0.541587312835687 0.963507348203431
1.637228627262399 0.531967828233917 1.018082831500743
1.606007150877321 0.521823355610934 1.071653589957993
1.573200739329919 0.511163906336461 1.124166755704261
1.538841768587627 0.500000000000000 1.175570504584946
1.502964146806356 0.488342654029270 1.225814107305953
1.465603280867248 0.476203372817337 1.274847979497379
1.426796041434352 0.463594136369163 1.322623730647304
1.386580726567735 0.450527388478791 1.369094211857377
1.344997023927915 0.437016024448821 1.414213562373095
1.302085971608936 0.423073378364304 1.457937254842823
1.257889917638724 0.408713209933610 1.500222139260919
1.212452478186693 0.393949690909255 1.541026485551579
1.165818494519853 0.378797391102095 1.580310024751381
1.118033988749895 0.363271264002680 1.618033988749895
1.069146118414920 0.347386632023967 1.654161148549124
1.019203129940644 0.331159171379941 1.688655851004030
0.968254311027002 0.314604896615095 1.721484054007887
0.916349942007136 0.297740144800000 1.752613360087727
0.863541246226779 0.280581559408590 1.782013048376736
0.809880339492993 0.263146073893066 1.809654104932039
0.755420178642166 0.245450894972620 1.835509251367962
0.700214509278003 0.227513485652482 1.859552971776503
0.644317812731105 0.209351547990041 1.881761537908451
0.587785252292473 0.190983005625053 1.902113032590307
0.530672618774003 0.172425986091170 1.920587371353886
0.473036275449684 0.153698802926257 1.937166322257262
0.414933102431857 0.134819937599136 1.951833523877495
0.356420440537411 0.115808021270614 1.964574501457377
0.297556034699316 0.096681816406770 1.975376681190276
0.238397976979348 0.077460198262669 1.984229402628956
0.179004649238238 0.058162136254766 1.991123929206160
0.119434665519823 0.038806675240380 1.996053456856543
0.059746814206062 0.019412916722718 1.999013120731463
0.000000000000000 0.000000000000000 2.000000000000000
0.000000000000000 0.000000000000000 -2.000000000000000
0.058409970389489 0.023126143270244 -1.999013120731463
0.116762297190126 0.046229463829134 -1.996053456856543
0.174999393700318 0.069287161488575 -1.991123929206160
0.233063786936861 0.092276481084768 -1.984229402628956
0.290898174353829 0.115174734934804 -1.975376681190276
0.348445480393272 0.137959325226674 -1.964574501457377
0.405648912811900 0.160607766320576 -1.951833523877495
0.462452018728169 0.183097706939531 -1.937166322257262
0.518798740334463 0.205406952227390 -1.920587371353886
0.574633470219376 0.227513485652482 -1.902113032590307
0.629901106245524 0.249395490735272 -1.881761537908451
0.684547105928689 0.271031372578589 -1.859552971776503
0.738517540264676 0.292399779179184 -1.835509251367962
0.791759146950725 0.313479622499583 -1.809654104932039
0.844219382948974 0.334250099279428 -1.782013048376736
0.895846476340093 0.354690711565788 -1.752613360087727
0.946589477415921 0.374781286942161 -1.721484054007887
0.996398308960672 0.394501998436215 -1.688655851004030
1.045223815671104 0.413833384086617 -1.654161148549124
1.093017812666870 0.432756366149634 -1.618033988749895
1.139733133043173 0.451252269926572 -1.580310024751381
1.185323674418811 0.469302842193438 -1.541026485551579
1.229744444433659 0.486890269214679 -1.500222139260919
1.272951605150698 0.503997194323179 -1.457937254842823
1.314902516318762 0.520606735049201 -1.414213562373095
1.355555777453324 0.536702499781342 -1.369094211857377
1.394871268693772 0.552268603943076 -1.322623730647304
1.432810190396869 0.567289685668916 -1.274847979497379
1.469335101427315 0.581750920964714 -1.225814107305953
1.504409956107628 0.595638038337160 -1.175570504584946
1.538000139790878 0.608937332878019 -1.124166755704261
1.570072503021162 0.621635679789223 -1.071653589957993
1.600595394248114 0.633720547335459 -1.018082831500743
1.629538691063168 0.645180009211485 -0.963507348203431
1.656873829926732 0.656002756311945 -0.907980999479093
1.682573834356960 0.666178107892098 -0.851558583130145
1.706613341552279 0.675696022108419 -0.794295781269561
1.728968627421412 0.684547105928689 -0.736249105369356
1.749617629996191 0.692722624401780 -0.677475840490583
1.768539971204061 0.700214509278003 -0.618033988749895
1.785716976978770 0.707015366971491 -0.557982212078459
1.801131695689425 0.713118485856777 -0.497379774329710
1.814768914869700 0.718517842892361 -0.436286482793085
1.826615176230704 0.723208109564721 -0.374762629171449
1.836658788942691 0.727184657146914 -0.312868930080462
1.844889841172495 0.730443561266570 -0.250666467128609
1.851300209865311 0.732981605778776 -0.188216626637029
1.855883568761173 0.734796285940020 -0.125581039058627
1.858635394638207 0.735885810880072 -0.062821518156257
1.859552971776503 0.736249105369356 0.000000000000000
1.858635394638207 0.735885810880072 0.062821518156257
1.855883568761173 0.734796285940020 0.125581039058627
1.851300209865311 0.732981605778776 0.188216626637029
1.844889841172495 0.730443561266570 0.250666467128609
1.836658788942691 0.727184657146914 0.312868930080462
1.826615176230704 0.723208109564721 0.374762629171449
1.814768914869700 0.718517842892361 0.436286482793085
1.801131695689425 0.713118485856777 0.497379774329710
1.785716976978770 0.707015366971491 0.557982212078459
1.768539971204061 0.700214509278003 0.618033988749895
1.749617629996191 0.692722624401780 0.677475840490583
1.728968627421412 0.684547105928689 0.736249105369356
1.706613341552279 0.675696022108419 0.794295781269561
1.682573834356960 0.666178107892098 0.851558583130145
1.656873829926732 0.656002756311945 0.907980999479093
1.629538691063168 0.645180009211485 0.963507348203431
1.600595394248114 0.633720547335459 1.018082831500743
1.570072503021162 0.621635679789223 1.071653589957993
1.538000139790878 0.608937332878019 1.124166755704261
1.504409956107628 0.595638038337160 1.175570504584946
1.469335101427315 0.581750920964714 1.225814107305953
1.432810190396869 0.567289685668916 1.274847979497379
1.394871268693772 0.552268603943076 1.322623730647304
1.355555777453324 0.536702499781342 1.369094211857377
1.314902516318762 0.520606735049201 1.414213562373095
1.272951605150698 0.503997194323179 1.457937254842823
1.229744444433659 0.486890269214679 1.500222139260919
1.185323674418811 0.469302842193438 1.541026485551579
1.139733133043173 0.451252269926572 1.580310024751381
1.093017812666870 0.432756366149634 1.618033988749895
1.045223815671104 0.413833384086617 1.654161148549124
0.996398308960672 0.394501998436215 1.688655851004030
0.946589477415921 0.374781286942161 1.721484054007887
0.895846476340093 0.354690711565788 1.752613360087727
0.844219382948974 0.334250099279428 1.782013048376736
0.791759146950725 0.313479622499583 1.809654104932039
0.738517540264676 0.292399779179184 1.835509251367962
0.684547105928689 0.271031372578589 1.859552971776503
0.629901106245524 0.249395490735272 1.881761537908451
0.574633470219376 0.227513485652482 1.902113032590307
0.518798740334463 0.205406952227390 1.920587371353886
0.462452018728169 0.183097706939531 1.937166322257262
0.405648912811900 0.160607766320576 1.951833523877495
0.348445480393272 0.137959325226674 1.964574501457377
0.290898174353829 0.115174734934804 1.975376681190276
0.233063786936861 0.092276481084768 1.984229402628956
0.174999393700318 0.069287161488575 1.991123929206160
0.116762297190126 0.046229463829134 1.996053456856543
0.058409970389489 0.023126143270244 1.999013120731463
0.000000000000000 0.000000000000000 2.000000000000000
0.000000000000000 0.000000000000000 -2.000000000000000
0.056842609104766 0.026748101495613 -1.999013120731463
0.113629121417038 0.053469805844388 -1.996053456856543
0.170303495505080 0.080138741950282 -1.991123929206160
0.226809800604049 0.106728590793139 -1.984229402628956
0.283092271812901 0.133213111402381 -1.975376681190276
0.339095365127619 0.159566166753684 -1.964574501457377
0.394763812256434 0.185761749563057 -1.951833523877495
0.450042675162965 0.211774007952900 -1.937166322257262
0.504877400283421 0.237577270964678 -1.920587371353886
0.559213872364384 0.263146073893066 -1.902113032590307
0.612998467868033 0.288455183416533 -1.881761537908451
0.666178107892098 0.313479622499583 -1.859552971776503
0.718700310552331 0.338194695042080 -1.835509251367962
0.770513242775789 0.362576010251310 -1.809654104932039
0.821565771453819 0.386599506712755 -1.782013048376736
0.871807513904260 0.410241476135798 -1.752613360087727
0.921188887593076 0.433478586750949 -1.721484054007887
0.969661159066319 0.456287906335481 -1.688655851004030
1.017176492044174 0.478646924844767 -1.654161148549124
1.063687994629588 0.500533576626974 -1.618033988749895
1.109149765584911 0.521926262199201 -1.580310024751381
1.153516939630874 0.542803869563559 -1.541026485551579
1.196745731723210 0.563145795042163 -1.500222139260919
1.238793480263199 0.582931963610476 -1.457937254842823
1.279618689199517 0.602142848708934 -1.414213562373095
1.319181068979832 0.620759491513304 -1.369094211857377
1.357441576311724 0.638763519644752 -1.322623730647304
1.394362452693704 0.656137165301165 -1.274847979497379
1.429907261678294 0.672863282791826 -1.225814107305953
1.464040924830404 0.688925365458139 -1.175570504584946
1.496729756345509 0.704307561963713 -1.124166755704261
1.527941496293474 0.718994691937711 -1.071653589957993
1.557645342455211 0.732972260956048 -1.018082831500743
1.585811980720744 0.746226474845634 -0.963507348203431
1.612413614018708 0.758744253297562 -0.907980999479093
1.637423989748690 0.770513242775789 -0.851558583130145
1.660818425689383 0.781521828708588 -0.794295781269561
1.682573834356960 0.791759146950725 -0.736249105369356
1.702668745789627 0.801215094505062 -0.677475840490583
1.721083328735889 0.809880339492993 -0.618033988749895
1.737799410225597 0.817746330363883 -0.557982212078459
1.752800493504478 0.824805304334414 -0.497379774329710
1.766071774314438 0.831050295049519 -0.436286482793085
1.777600155503579 0.836475139457328 -0.374762629171449
1.787374259951505 0.841074483891360 -0.312868930080462
1.795384441797169 0.844843789353944 -0.250666467128609
1.801622795958169 0.847779335995663 -0.188216626637029
1.806083165932115 0.849878226786393 -0.125581039058627
1.808761149872349 0.851138390374328 -0.062821518156257
1.809654104932039 0.851558583130145 0.000000000000000
1.808761149872349 0.851138390374328 0.062821518156257
1.806083165932115 0.849878226786393 0.125581039058627
1.801622795958169 0.847779335995663 0.188216626637029
1.795384441797169 0.844843789353944 0.250666467128609
1.787374259951505 0.841074483891360 0.312868930080462
1.777600155503579 0.836475139457328 0.374762629171449
1.766071774314438 0.831050295049519 0.436286482793085
1.752800493504478 0.824805304334414 0.497379774329710
1.737799410225597 0.817746330363883 0.557982212078459
1.721083328735889 0.809880339492993 0.618033988749895
1.702668745789627 0.801215094505062 0.677475840490583
1.682573834356960 0.791759146950725 0.736249105369356
1.660818425689383 0.781521828708588 0.794295781269561
1.637423989748690 0.770513242775789 0.851558583130145
1.612413614018708 0.758744253297562 0.907980999479093
1.585811980720744 0.746226474845634 0.963507348203431
1.557645342455211 0.732972260956048 1.018082831500743
1.527941496293474 0.718994691937711 1.071653589957993
1.496729756345509 0.704307561963713 1.124166755704261
1.464040924830404 0.688925365458139 1.175570504584946
1.429907261678294 0.672863282791826 1.225814107305953
1.394362452693704 0.656137165301165 1.274847979497379
1.357441576311724 0.638763519644752 1.322623730647304
1.319181068979832 0.620759491513304 1.369094211857377
1.279618689199517 0.602142848708934 1.414213562373095
1.238793480263199 0.582931963610476 1.457937254842823
1.196745731723210 0.563145795042163 1.500222139260919
1.153516939630874 0.542803869563559 1.541026485551579
1.109149765584911 0.521926262199201 1.580310024751381
1.063687994629588 0.500533576626974 1.618033988749895
1.017176492044174 0.478646924844767 1.654161148549124
0.969661159066319 0.456287906335481 1.688655851004030
0.921188887593076 0.433478586750949 1.721484054007887
0.871807513904260 0.410241476135798 1.752613360087727
0.821565771453819 0.386599506712755 1.782013048376736
0.770513242775789 0.362576010251310 1.809654104932039
0.718700310552331 0.338194695042080 1.835509251367962
0.666178107892098 0.313479622499583 1.859552971776503
0.612998467868033 0.288455183416533 1.881761537908451
0.559213872364384 0.263146073893066 1.902113032590307
0.504877400283421 0.237577270964678 1.920587371353886
0.450042675162965 0.211774007952900 1.937166322257262
0.394763812256434 0.185761749563057 1.951833523877495
0.339095365127619 0.159566166753684 1.964574501457377
0.283092271812901 0.133213111402381 1.975376681190276
0.226809800604049 0.106728590793139 1.984229402628956
0.170303495505080 0.080138741950282 1.991123929206160
0.113629121417038 0.053469805844388 1.996053456856543
0.056842609104766 0.026748101495613 1.999013120731463
0.000000000000000 0.000000000000000 2.000000000000000
0.000000000000000 0.000000000000000 -2.000000000000000
0.055050916010825 0.030264497184424 -1.999013120731463
0.110047503413924 0.060499126964005 -1.996053456856543
0.164935487217350 0.090674051409420 -1.991123929206160
0.219660699607795 0.120759491513304 -1.984229402628956
0.274169133407685 0.150725756578535 -1.975376681190276
0.328406995373742 0.180543273519364 -1.964574501457377
0.382320759284423 0.210182616046484 -1.951833523877495
0.435857218763834 0.239614533707220 -1.937166322257262
0.488963539790005 0.268809980752200 -1.920587371353886
0.541587312835687 0.297740144800000 -1.902113032590307
0.593676604590229 0.326376475271486 -1.881761537908451
0.645180009211485 0.354690711565788 -1.859552971776503
0.696046699057176 0.382654910950104 -1.835509251367962
0.746226474845634 0.410241476135798 -1.809654104932039
0.795669815196434 0.437423182513601 -1.782013048376736
0.844327925502015 0.464173205021003 -1.752613360087727
0.892152786082072 0.490465144615360 -1.721484054007887
0.939097199573177 0.516273054326556 -1.688655851004030
0.985114837506882 0.541571464863533 -1.654161148549124
1.030160286030324 0.566335409749405 -1.618033988749895
1.074189090724212 0.590540449960357 -1.580310024751381
1.117157800473976 0.614162698044011 -1.541026485551579
1.159024010350768 0.637178841693456 -1.500222139260919
1.199746403460008 0.659566166753684 -1.457937254842823
1.239284791716172 0.681302579637714 -1.414213562373095
1.277600155503579 0.702366629130299 -1.369094211857377
1.314654682184039 0.722737527557683 -1.322623730647304
1.350411803413367 0.742395171302527 -1.274847979497379
1.384836231229919 0.761320160643750 -1.225814107305953
1.417893992879550 0.779493818901715 -1.175570504584946
1.449552464342627 0.796898210869854 -1.124166755704261
1.479780402529987 0.813516160514550 -1.071653589957993
1.508547976116103 0.829331267925815 -1.018082831500743
1.535826794978997 0.844327925502015 -0.963507348203431
1.561589938217862 0.858491333352690 -0.907980999479093
1.585811980720744 0.871807513904261 -0.851558583130145
1.608469018256057 0.884263325694205 -0.794295781269561
1.629538691063168 0.895846476340094 -0.736249105369356
1.649000205918790 0.906545534670690 -0.677475840490583
1.666834356657377 0.916349942007136 -0.618033988749895
1.683023543125295 0.925250022583090 -0.557982212078459
1.697551788550043 0.933236993093543 -0.497379774329710
1.710404755307403 0.940302971362881 -0.436286482793085
1.721569759070943 0.946440984123637 -0.374762629171449
1.731035781329916 0.951644973898268 -0.312868930080462
1.738793480263199 0.955909804977151 -0.250666467128609
1.744835199958543 0.959231268486911 -0.188216626637029
1.749154977968035 0.961606086544069 -0.125581039058627
1.751748551192312 0.963031915489918 -0.062821518156257
1.752613360087727 0.963507348203431 0.000000000000000
1.751748551192312 0.963031915489918 0.062821518156257
1.749154977968035 0.961606086544069 0.125581039058627
1.744835199958543 0.959231268486911 0.188216626637029
1.738793480263199 0.955909804977151 0.250666467128609
1.731035781329916 0.951644973898268 0.312868930080462
1.721569759070943 0.946440984123637 0.374762629171449
1.710404755307403 0.940302971362881 0.436286482793085
1.697551788550043 0.933236993093543 0.497379774329710
1.683023543125295 0.925250022583090 0.557982212078459
1.666834356657377 0.916349942007136 0.618033988749895
1.649000205918790 0.906545534670690 0.677475840490583
1.629538691063168 0.895846476340094 0.736249105369356
1.608469018256057 0.884263325694205 0.794295781269561
1.585811980720744 0.871807513904261 0.851558583130145
1.561589938217862 0.858491333352690 0.907980999479093
1.535826794978997 0.844327925502015 0.963507348203431
1.508547976116103 0.829331267925815 1.018082831500743
1.479780402529987 0.813516160514550 1.071653589957993
1.449552464342627 0.796898210869854 1.124166755704261
1.417893992879550 0.779493818901715 1.175570504584946
1.384836231229919 0.761320160643750 1.225814107305953
1.350411803413367 0.742395171302527 1.274847979497379
1.314654682184039 0.722737527557683 1.322623730647304
1.277600155503579 0.702366629130299 1.369094211857377
1.239284791716172 0.681302579637714 1.414213562373095
1.199746403460008 0.659566166753684 1.457937254842823
1.159024010350768 0.637178841693456 1.500222139260919
1.117157800473976 0.614162698044011 1.541026485551579
1.074189090724212 0.590540449960357 1.580310024751381
1.030160286030324 0.566335409749405 1.618033988749895
0.985114837506882 0.541571464863533 1.654161148549124
0.939097199573177 0.516273054326556 1.688655851004030
0.892152786082072 0.490465144615360 1.721484054007887
0.844327925502015 0.464173205021003 1.752613360087727
0.795669815196434 0.437423182513601 1.782013048376736
0.746226474845634 0.410241476135798 1.809654104932039
0.696046699057176 0.382654910950104 1.835509251367962
0.645180009211485 0.354690711565788 1.859552971776503
0.593676604590229 0.326376475271486 1.881761537908451
0.541587312835687 0.297740144800000 1.902113032590307
0.488963539790005 0.268809980752200 1.920587371353886
0.435857218763834 0.239614533707220 1.937166322257262
0.382320759284423 0.210182616046484 1.951833523877495
0.328406995373742 0.180543273519364 1.964574501457377
0.274169133407685 0.150725756578535 1.975376681190276
0.219660699607795 0.120759491513304 1.984229402628956
0.164935487217350 0.090674051409420 1.991123929206160
0.110047503413924 0.060499126964005 1.996053456856543
0.055050916010825 0.030264497184424 1.999013120731463
0.000000000000000 0.000000000000000 2.000000000000000
0.000000000000000 0.000000000000000 -2.000000000000000
0.053041962101759 0.033661452729382 -1.999013120731463
0.106031578190758 0.067289685668916 -1.996053456856543
0.158916553913430 0.100851511812678 -1.991123929206160
0.211644698183617 0.134313809690230 -1.984229402628956
0.264163974688871 0.167643556053522 -1.975376681190276
0.316422553244011 0.200807858466840 -1.964574501457377
0.368368860941256 0.233773987767678 -1.951833523877495
0.419951633046464 0.266509410366465 -1.937166322257262
0.471119963591231 0.298981820353291 -1.920587371353886
0.521823355610935 0.331159171379941 -1.902113032590307
0.572011770979148 0.363009708285771 -1.881761537908451
0.621635679789223 0.394501998436216 -1.859552971776503
0.670646109234331 0.425604962743007 -1.835509251367962
0.718994691937711 0.456287906335481 -1.809654104932039
0.766633713685429 0.486520548852709 -1.782013048376736
0.813516160514550 0.516273054326556 -1.752613360087727
0.859595765110239 0.545516060626185 -1.721484054007887
0.904827052466019 0.574220708434927 -1.688655851004030
0.949165384762109 0.602358669730951 -1.654161148549124
0.992567005417565 0.629902175743594 -1.618033988749895
1.034989082272740 0.656824044357789 -1.580310024751381
1.076389749859458 0.683097706939530 -1.541026485551579
1.116728150717174 0.708697234555908 -1.500222139260919
1.155964475714356 0.733597363563834 -1.457937254842823
1.194060003335290 0.757773520542205 -1.414213562373095
1.230977137893543 0.781201846542907 -1.369094211857377
1.266679446634367 0.803859220636712 -1.322623730647304
1.301131695689425 0.825723282730849 -1.274847979497379
1.334299884848371 0.846772455635711 -1.225814107305953
1.366151281112949 0.866985966358938 -1.175570504584946
1.396654451000512 0.886343866605853 -1.124166755704261
1.425779291565073 0.904827052466020 -1.071653589957993
1.453497060105278 0.922417283266496 -1.018082831500743
1.479780402529987 0.939097199573177 -0.963507348203431
1.504603380353451 0.954850340322458 -0.907980999479093
1.527941496293474 0.969661159066319 -0.851558583130145
1.549771718447268 0.983515039314793 -0.794295781269561
1.570072503021162 0.996398308960672 -0.736249105369356
1.588823815591724 1.008298253772233 -0.677475840490583
1.606007150877321 1.019203129940644 -0.618033988749895
1.621605551000595 1.029102175669689 -0.557982212078459
1.635603622223842 1.037985621796359 -0.497379774329710
1.647987550140773 1.045844701431839 -0.436286482793085
1.658745113309663 1.052671658613367 -0.374762629171449
1.667865695314441 1.058459755958433 -0.312868930080462
1.675340295241809 1.063203281313762 -0.250666467128609
1.681161536564058 1.066897553392523 -0.188216626637029
1.685323674418811 1.069538926394189 -0.125581039058627
1.687822601278506 1.071124793602502 -0.062821518156257
1.688655851004030 1.071653589957993 0.000000000000000
1.687822601278506 1.071124793602502 0.062821518156257
1.685323674418811 1.069538926394189 0.125581039058627
1.681161536564058 1.066897553392523 0.188216626637029
1.675340295241809 1.063203281313762 0.250666467128609
1.667865695314441 1.058459755958433 0.312868930080462
1.658745113309663 1.052671658613367 0.374762629171449
1.647987550140773 1.045844701431839 0.436286482793085
1.635603622223842 1.037985621796359 0.497379774329710
1.621605551000595 1.029102175669689 0.557982212078459
1.606007150877321 1.019203129940644 0.618033988749895
1.588823815591724 1.008298253772233 0.677475840490583
1.570072503021162 0.996398308960672 0.736249105369356
1.549771718447268 0.983515039314793 0.794295781269561
1.527941496293474 0.969661159066319 0.851558583130145
1.504603380353451 0.954850340322458 0.907980999479093
1.479780402529987 0.939097199573177 0.963507348203431
1.453497060105278 0.922417283266496 1.018082831500743
1.425779291565073 0.904827052466020 1.071653589957993
1.396654451000512 0.886343866605853 1.124166755704261
1.366151281112949 0.866985966358938 1.175570504584946
1.334299884848371 0.846772455635711 1.225814107305953
1.301131695689425 0.825723282730849 1.274847979497379
1.266679446634367 0.803859220636712 1.322623730647304
1.230977137893543 0.781201846542907 1.369094211857377
1.194060003335290 0.757773520542205 1.414213562373095
1.155964475714356 0.733597363563834 1.457937254842823
1.116728150717174 0.708697234555908 1.500222139260919
1.076389749859458 0.683097706939530 1.541026485551579
1.034989082272740 0.656824044357789 1.580310024751381
0.992567005417565 0.629902175743594 1.618033988749895
0.949165384762109 0.602358669730951 1.654161148549124
0.904827052466019 0.574220708434927 1.688655851004030
0.859595765110239 0.545516060626185 1.721484054007887
0.813516160514550 0.516273054326556 1.752613360087727
0.766633713685429 0.486520548852709 1.782013048376736
0.718994691937711 0.456287906335481 1.809654104932039
0.670646109234331 0.425604962743007 1.835509251367962
0.621635679789223 0.394501998436216 1.859552971776503
0.572011770979148 0.363009708285771 1.881761537908451
0.521823355610935 0.331159171379941 1.902113032590307
0.471119963591231 0.298981820353291 1.920587371353886
0.419951633046464 0.266509410366465 1.937166322257262
0.368368860941256 0.233773987767678 1.951833523877495
0.316422553244011 0.200807858466840 1.964574501457377
0.264163974688871 0.167643556053522 1.975376681190276
0.211644698183617 0.134313809690230 1.984229402628956
0.158916553913430 0.100851511812678 1.991123929206160
0.106031578190758 0.067289685668916 1.996053456856543
0.053041962101759 0.033661452729382 1.999013120731463
0.000000000000000 0.000000000000000 2.000000000000000
0.000000000000000 0.000000000000000 -2.000000000000000
0.050823675800846 0.036925561898872 -1.999013120731463
0.101597194769693 0.073814682726226 -1.996053456856543
0.152270449573281 0.110630957373484 -1.991123929206160
0.202793431826973 0.147338052622452 -1.984229402628956
0.253116281447001 0.183899743001820 -1.975376681190276
0.303189335856339 0.220279946537331 -1.964574501457377
0.352963178995679 0.256442760360329 -1.951833523877495
0.402388690091112 0.292352496139562 -1.937166322257262
0.451417092130399 0.327973715301249 -1.920587371353886
0.500000000000000 0.363271264002681 -1.902113032590307
0.548089468235333 0.398210307824813 -1.881761537908451
0.595638038337161 0.432756366149635 -1.859552971776503
0.642598785607401 0.466875346188376 -1.835509251367962
0.688925365458139 0.500533576626973 -1.809654104932039
0.734572059148137 0.533697840855591 -1.782013048376736
0.779493818901715 0.566335409749405 -1.752613360087727
0.823646312365467 0.598414073968299 -1.721484054007887
0.866985966358938 0.629902175743594 -1.688655851004030
0.909470009876097 0.660768640120440 -1.654161148549124
0.951056516295154 0.690983005625053 -1.618033988749895
0.991704444755072 0.720515454326502 -1.580310024751381
1.031373680657944 0.749336841263417 -1.541026485551579
1.070025075257262 0.777418723206537 -1.500222139260919
1.107620484292993 0.804733386728753 -1.457937254842823
1.144122805635369 0.831253875554907 -1.414213562373095
1.179496015900203 0.856954017164384 -1.369094211857377
1.213705205999623 0.881808448620233 -1.322623730647304
1.246716615593126 0.905792641599318 -1.274847979497379
1.278497666404961 0.928882926598815 -1.225814107305953
1.309016994374947 0.951056516295154 -1.175570504584946
1.338244480611023 0.972291528032354 -1.124166755704261
1.366151281112949 0.992567005417565 -1.071653589957993
1.392709855237861 1.011862939002496 -1.018082831500743
1.417893992879550 1.030160286030324 -0.963507348203431
1.441678840334685 1.047440989228599 -0.907980999479093
1.464040924830404 1.063687994629588 -0.851558583130145
1.484958177689119 1.078885268400486 -0.794295781269561
1.504409956107628 1.093017812666870 -0.736249105369356
1.522377063529074 1.106071680313791 -0.677475840490583
1.538841768587627 1.118033988749895 -0.618033988749895
1.553787822607202 1.128892932620982 -0.557982212078459
1.567200475636941 1.138637795460467 -0.497379774329710
1.579066491007633 1.147258960265240 -0.436286482793085
1.589374158394708 1.154747918986484 -0.374762629171449
1.598113305374915 1.161097280926094 -0.312868930080462
1.605275307465275 1.166300780030404 -0.250666467128609
1.610853096634403 1.170353281074023 -0.188216626637029
1.614841168277804 1.173250784727686 -0.125581039058627
1.617235586650252 1.174990431505107 -0.062821518156257
1.618033988749895 1.175570504584946 0.000000000000000
1.617235586650252 1.174990431505107 0.062821518156257
1.614841168277804 1.173250784727686 0.125581039058627
1.610853096634403 1.170353281074023 0.188216626637029
1.605275307465275 1.166300780030404 0.250666467128609
1.598113305374915 1.161097280926094 0.312868930080462
1.589374158394708 1.154747918986484 0.374762629171449
1.579066491007633 1.147258960265240 0.436286482793085
1.567200475636941 1.138637795460467 0.497379774329710
1.553787822607202 1.128892932620982 0.557982212078459
1.538841768587627 1.118033988749895 0.618033988749895
1.522377063529074 1.106071680313791 0.677475840490583
1.504409956107628 1.093017812666870 0.736249105369356
1.484958177689119 1.078885268400486 0.794295781269561
1.464040924830404 1.063687994629588 0.851558583130145
1.441678840334685 1.047440989228599 0.907980999479093
1.417893992879550 1.030160286030324 0.963507348203431
1.392709855237861 1.011862939002496 1.018082831500743
1.366151281112949 0.992567005417565 1.071653589957993
1.338244480611023 0.972291528032354 1.124166755704261
1.309016994374947 0.951056516295154 1.175570504584946
1.278497666404961 0.928882926598815 1.225814107305953
1.246716615593126 0.905792641599318 1.274847979497379
1.213705205999623 0.881808448620233 1.322623730647304
1.179496015900203 0.856954017164384 1.369094211857377
1.144122805635369 0.831253875554907 1.414213562373095
1.107620484292993 0.804733386728753 1.457937254842823
1.070025075257262 0.777418723206537 1.500222139260919
1.031373680657944 0.749336841263417 1.541026485551579
0.991704444755072 0.720515454326502 1.580310024751381
0.951056516295154 0.690983005625053 1.618033988749895
0.909470009876097 0.660768640120440 1.654161148549124
0.866985966358938 0.629902175743594 1.688655851004030
0.823646312365467 0.598414073968299 1.721484054007887
0.779493818901715 0.566335409749405 1.752613360087727
0.734572059148137 0.533697840855591 1.782013048376736
0.688925365458139 0.500533576626973 1.809654104932039
0.642598785607401 0.466875346188376 1.835509251367962
0.595638038337161 0.432756366149635 1.859552971776503
0.548089468235333 0.398210307824813 1.881761537908451
0.500000000000000 0.363271264002681 1.902113032590307
0.451417092130399 0.327973715301249 1.920587371353886
0.402388690091112 0.292352496139562 1.937166322257262
0.352963178995679 0.256442760360329 1.951833523877495
0.303189335856339 0.220279946537331 1.964574501457377
0.253116281447001 0.183899743001820 1.975376681190276
0.202793431826973 0.147338052622452 1.984229402628956
0.152270449573281 0.110630957373484 1.991123929206160
0.101597194769693 0.073814682726226 1.996053456856543
0.050823675800846 0.036925561898872 1.999013120731463
0.000000000000000 0.000000000000000 2.000000000000000
0.000000000000000 0.000000000000000 -2.000000000000000
0.048404811670676 0.040043942745231 -1.999013120731463
0.096761853636216 0.080048366953536 -1.996053456856543
0.145023403334417 0.119973793088015 -1.991123929206160
0.193141832442415 0.159780819573326 -1.984229402628956
0.241069653880088 0.199430161680292 -1.975376681190276
0.288759568674074 0.238882690295174 -1.964574501457377
0.336164512636144 0.278099470535392 -1.951833523877495
0.383237702809875 0.317041800173547 -1.937166322257262
0.429932683639782 0.355671247831851 -1.920587371353886
0.476203372817337 0.393949690909255 -1.902113032590307
0.522004106758652 0.431839353203854 -1.881761537908451
0.567289685668916 0.469302842193438 -1.859552971776503
0.612015418149139 0.506303185937396 -1.835509251367962
0.656137165301165 0.542803869563558 -1.809654104932039
0.699611384287439 0.578768871303967 -1.782013048376736
0.742395171302527 0.614162698044010 -1.752613360087727
0.784446303913995 0.648950420349846 -1.721484054007887
0.825723282730849 0.683097706939530 -1.688655851004030
0.866185372358429 0.716570858563851 -1.654161148549124
0.905792641599318 0.749336841263417 -1.618033988749895
0.944506002860619 0.781363318969189 -1.580310024751381
0.982287250728689 0.812618685414275 -1.541026485551579
1.019099099673266 0.843072095325501 -1.500222139260919
1.054905220843791 0.872693494863967 -1.457937254842823
1.089670277921595 0.901453651284566 -1.414213562373095
1.123359961992576 0.929324181785164 -1.369094211857377
1.155941025405962 0.956277581517009 -1.322623730647304
1.187381314585725 0.982287250728689 -1.274847979497379
1.217649801762274 1.007327521016876 -1.225814107305953
1.246716615593126 1.031373680657944 -1.175570504584946
1.274553070642309 1.054401998995457 -1.124166755704261
1.301131695689425 1.076389749859458 -1.071653589957993
1.326426260840429 1.097315233994456 -1.018082831500743
1.350411803413367 1.117157800473976 -0.963507348203431
1.373064652573528 1.135897867080524 -0.907980999479093
1.394362452693704 1.153516939630874 -0.851558583130145
1.414284185416490 1.169997630227597 -0.794295781269561
1.432810190396869 1.185323674418811 -0.736249105369356
1.449922184704597 1.199479947249235 -0.677475840490583
1.465603280867248 1.212452478186693 -0.618033988749895
1.479838003536112 1.224228464909342 -0.557982212078459
1.492612304758493 1.234796285940020 -0.497379774329710
1.503913577841344 1.244145512115237 -0.436286482793085
1.513730669792553 1.252266916877504 -0.374762629171449
1.522053892327596 1.259152485380831 -0.312868930080462
1.528875031430704 1.264795422400408 -0.250666467128609
1.534187355461109 1.269190159038678 -0.188216626637029
1.537985621796359 1.272332358221162 -0.125581039058627
1.540266082006150 1.274218918976628 -0.062821518156257
1.541026485551579 1.274847979497379 0.000000000000000
1.540266082006150 1.274218918976628 0.062821518156257
1.537985621796359 1.272332358221162 0.125581039058627
1.534187355461109 1.269190159038678 0.188216626637029
1.528875031430704 1.264795422400408 0.250666467128609
1.522053892327596 1.259152485380831 0.312868930080462
1.513730669792553 1.252266916877504 0.374762629171449
1.503913577841344 1.244145512115237 0.436286482793085
1.492612304758493 1.234796285940020 0.497379774329710
1.479838003536112 1.224228464909342 0.557982212078459
1.465603280867248 1.212452478186693 0.618033988749895
1.449922184704597 1.199479947249235 0.677475840490583
1.432810190396869 1.185323674418811 0.736249105369356
1.414284185416490 1.169997630227597 0.794295781269561
1.394362452693704 1.153516939630874 0.851558583130145
1.373064652573528 1.135897867080524 0.907980999479093
1.350411803413367 1.117157800473976 0.963507348203431
1.326426260840429 1.097315233994456 1.018082831500743
1.301131695689425 1.076389749859458 1.071653589957993
1.274553070642309 1.054401998995457 1.124166755704261
1.246716615593126 1.031373680657944 1.175570504584946
1.217649801762274 1.007327521016876 1.225814107305953
1.187381314585725 0.982287250728689 1.274847979497379
1.155941025405962 0.956277581517009 1.322623730647304
1.123359961992576 0.929324181785164 1.369094211857377
1.089670277921595 0.901453651284566 1.414213562373095
1.054905220843791 0.872693494863967 1.457937254842823
1.019099099673266 0.843072095325501 1.500222139260919
0.982287250728689 0.812618685414275 1.541026485551579
0.944506002860619 0.781363318969189 1.580310024751381
0.905792641599318 0.749336841263417 1.618033988749895
0.866185372358429 0.716570858563851 1.654161148549124
0.825723282730849 0.683097706939530 1.688655851004030
0.784446303913995 0.648950420349846 1.721484054007887
0.742395171302527 0.614162698044010 1.752613360087727
0.699611384287439 0.578768871303967 1.782013048376736
0.656137165301165 0.542803869563558 1.809654104932039
0.612015418149139 0.506303185937396 1.835509251367962
0.567289685668916 0.469302842193438 1.859552971776503
0.522004106758652 0.431839353203854 1.881761537908451
0.476203372817337 0.393949690909255 1.902113032590307
0.429932683639782 0.355671247831851 1.920587371353886
0.383237702809875 0.317041800173547 1.937166322257262
0.336164512636144 0.278099470535392 1.951833523877495
0.288759568674074 0.238882690295174 1.964574501457377
0.241069653880088 0.199430161680292 1.975376681190276
0.193141832442415 0.159780819573326 1.984229402628956
0.145023403334417 0.119973793088015 1.991123929206160
0.096761853636216 0.080048366953536 1.996053456856543
0.048404811670676 0.040043942745231 1.999013120731463
0.000000000000000 0.000000000000000 2.000000000000000
0.000000000000000 0.000000000000000 -2.000000000000000
0.045794915862896 0.043004288443912 -1.999013120731463
0.091544637672722 0.085966136847101 -1.996053456856543
0.137204015977483 0.128843147052039 -1.991123929206160
0.182727990483316 0.171593004626258 -1.984229402628956
0.228071634523560 0.214173520621585 -1.975376681190276
0.273190199395951 0.256542673209542 -1.964574501457377
0.318039158524191 0.298658649151813 -1.951833523877495
0.362574251400300 0.340479885064867 -1.937166322257262
0.406751527264397 0.381965108437997 -1.920587371353886
0.450527388478791 0.423073378364304 -1.902113032590307
0.493858633553587 0.463764125944434 -1.881761537908451
0.536702499781342 0.503997194323179 -1.859552971776503
0.579016705438690 0.543732878319445 -1.835509251367962
0.620759491513304 0.582931963610476 -1.809654104932039
0.661889662914996 0.621555765431652 -1.782013048376736
0.702366629130299 0.659566166753684 -1.752613360087727
0.742150444280400 0.696925655899518 -1.721484054007887
0.781201846542906 0.733597363563834 -1.688655851004030
0.819482296898517 0.769545099198595 -1.654161148549124
0.856954017164384 0.804733386728753 -1.618033988749895
0.893580027276624 0.839127499562849 -1.580310024751381
0.929324181785164 0.872693494863967 -1.541026485551579
0.964151205524952 0.905398247047217 -1.500222139260919
0.998026728428272 0.937209480470687 -1.457937254842823
1.030917319443860 0.968095801287603 -1.414213562373095
1.062790519529313 0.998026728428272 -1.369094211857377
1.093614873684246 1.026972723681208 -1.322623730647304
1.123359961992576 1.054905220843791 -1.274847979497379
1.151996429643311 1.081796653913652 -1.225814107305953
1.179496015900203 1.107620484292993 -1.175570504584946
1.205831581991680 1.132351226978978 -1.124166755704261
1.230977137893543 1.155964475714356 -1.071653589957993
1.254907867977977 1.178436927073486 -1.018082831500743
1.277600155503579 1.199746403460008 -0.963507348203431
1.299031605922235 1.219871874993455 -0.907980999479093
1.319181068979832 1.238793480263199 -0.851558583130145
1.338028659589006 1.256492545929272 -0.794295781269561
1.355555777453324 1.272951605150697 -0.736249105369356
1.371745125423528 1.288154414823148 -0.677475840490583
1.386580726567735 1.302085971608936 -0.618033988749895
1.400047939938739 1.314732526743490 -0.557982212078459
1.412133475022860 1.326081599603730 -0.497379774329710
1.422825404856074 1.336121990024933 -0.436286482793085
1.432113177794488 1.344843789353944 -0.374762629171449
1.439987627927539 1.352238390227821 -0.312868930080462
1.446440984123637 1.358298495068262 -0.250666467128609
1.451466877699342 1.363018123283436 -0.188216626637029
1.455060348704478 1.366392617170101 -0.125581039058627
1.457217850817007 1.368418646510199 -0.062821518156257
1.457937254842823 1.369094211857377 0.000000000000000
1.457217850817007 1.368418646510199 0.062821518156257
1.455060348704478 1.366392617170101 0.125581039058627
1.451466877699342 1.363018123283436 0.188216626637029
1.446440984123637 1.358298495068262 0.250666467128609
1.439987627927539 1.352238390227821 0.312868930080462
1.432113177794488 1.344843789353944 0.374762629171449
1.422825404856074 1.336121990024933 0.436286482793085
1.412133475022860 1.326081599603730 0.497379774329710
1.400047939938739 1.314732526743490 0.557982212078459
1.386580726567735 1.302085971608936 0.618033988749895
1.371745125423528 1.288154414823148 0.677475840490583
1.355555777453324 1.272951605150697 0.736249105369356
1.338028659589006 1.256492545929272 0.794295781269561
1.319181068979832 1.238793480263199 0.851558583130145
1.299031605922235 1.219871874993455 0.907980999479093
1.277600155503579 1.199746403460008 0.963507348203431
1.254907867977977 1.178436927073486 1.018082831500743
1.230977137893543 1.155964475714356 1.071653589957993
1.205831581991680 1.132351226978978 1.124166755704261
1.179496015900203 1.107620484292993 1.175570504584946
1.151996429643311 1.081796653913652 1.225814107305953
1.123359961992576 1.054905220843791 1.274847979497379
1.093614873684246 1.026972723681208 1.322623730647304
1.062790519529313 0.998026728428272 1.369094211857377
1.030917319443860 0.968095801287603 1.414213562373095
0.998026728428272 0.937209480470687 1.457937254842823
0.964151205524952 0.905398247047217 1.500222139260919
0.929324181785164 0.872693494863967 1.541026485551579
0.893580027276624 0.839127499562849 1.580310024751381
0.856954017164384 0.804733386728753 1.618033988749895
0.819482296898517 0.769545099198595 1.654161148549124
0.781201846542906 0.733597363563834 1.688655851004030
0.742150444280400 0.696925655899518 1.721484054007887
0.702366629130299 0.659566166753684 1.752613360087727
0.661889662914996 0.621555765431652 1.782013048376736
0.620759491513304 0.582931963610476 1.809654104932039
0.579016705438690 0.543732878319445 1.835509251367962
0.536702499781342 0.503997194323179 1.859552971776503
0.493858633553587 0.463764125944434 1.881761537908451
0.450527388478791 0.423073378364304 1.902113032590307
0.406751527264397 0.381965108437997 1.920587371353886
0.362574251400300 0.340479885064867 1.937166322257262
0.318039158524191 0.298658649151813 1.951833523877495
0.273190199395951 0.256542673209542 1.964574501457377
0.228071634523560 0.214173520621585 1.975376681190276
0.182727990483316 0.171593004626258 1.984229402628956
0.137204015977483 0.128843147052039 1.991123929206160
0.091544637672722 0.085966136847101 1.996053456856543
0.045794915862896 0.043004288443912 1.999013120731463
0.000000000000000 0.000000000000000 2.000000000000000
0.000000000000000 0.000000000000000 -2.000000000000000
0.043004288443912 0.045794915862896 -1.999013120731463
0.085966136847101 0.091544637672722 -1.996053456856543
0.128843147052039 0.137204015977483 -1.991123929206160
0.171593004626258 0.182727990483316 -1.984229402628956
0.214173520621585 0.228071634523560 -1.975376681190276
0.256542673209542 0.273190199395951 -1.964574501457377
0.298658649151813 0.318039158524191 -1.951833523877495
0.340479885064867 0.362574251400300 -1.937166322257262
0.381965108437997 0.406751527264397 -1.920587371353886
0.423073378364304 0.450527388478791 -1.902113032590307
0.463764125944435 0.493858633553587 -1.881761537908451
0.503997194323179 0.536702499781342 -1.859552971776503
0.543732878319445 0.579016705438690 -1.835509251367962
0.582931963610476 0.620759491513304 -1.809654104932039
0.621555765431652 0.661889662914996 -1.782013048376736
0.659566166753684 0.702366629130299 -1.752613360087727
0.696925655899518 0.742150444280400 -1.721484054007887
0.733597363563834 0.781201846542906 -1.688655851004030
0.769545099198595 0.819482296898517 -1.654161148549124
0.804733386728753 0.856954017164384 -1.618033988749895
0.839127499562849 0.893580027276624 -1.580310024751381
0.872693494863967 0.929324181785164 -1.541026485551579
0.905398247047217 0.964151205524952 -1.500222139260919
0.937209480470687 0.998026728428272 -1.457937254842823
0.968095801287603 1.030917319443860 -1.414213562373095
0.998026728428272 1.062790519529313 -1.369094211857377
1.026972723681208 1.093614873684246 -1.322623730647304
1.054905220843791 1.123359961992576 -1.274847979497379
1.081796653913652 1.151996429643311 -1.225814107305953
1.107620484292993 1.179496015900203 -1.175570504584946
1.132351226978978 1.205831581991680 -1.124166755704261
1.155964475714356 1.230977137893543 -1.071653589957993
1.178436927073486 1.254907867977977 -1.018082831500743
1.199746403460008 1.277600155503579 -0.963507348203431
1.219871874993455 1.299031605922235 -0.907980999479093
1.238793480263199 1.319181068979832 -0.851558583130145
1.256492545929273 1.338028659589006 -0.794295781269561
1.272951605150698 1.355555777453324 -0.736249105369356
1.288154414823149 1.371745125423528 -0.677475840490583
1.302085971608936 1.386580726567735 -0.618033988749895
1.314732526743491 1.400047939938739 -0.557982212078459
1.326081599603730 1.412133475022860 -0.497379774329710
1.336121990024933 1.422825404856074 -0.436286482793085
1.344843789353944 1.432113177794488 -0.374762629171449
1.352238390227821 1.439987627927539 -0.312868930080462
1.358298495068263 1.446440984123637 -0.250666467128609
1.363018123283436 1.451466877699342 -0.188216626637029
1.366392617170101 1.455060348704478 -0.125581039058627
1.368418646510200 1.457217850817007 -0.062821518156257
1.369094211857377 1.457937254842823 0.000000000000000
1.368418646510200 1.457217850817007 0.062821518156257
1.366392617170101 1.455060348704478 0.125581039058627
1.363018123283436 1.451466877699342 0.188216626637029
1.358298495068263 1.446440984123637 0.250666467128609
1.352238390227821 1.439987627927539 0.312868930080462
1.344843789353944 1.432113177794488 0.374762629171449
1.336121990024933 1.422825404856074 0.436286482793085
1.326081599603730 1.412133475022860 0.497379774329710
1.314732526743491 1.400047939938739 0.557982212078459
1.302085971608936 1.386580726567735 0.618033988749895
1.288154414823149 1.371745125423528 0.677475840490583
1.272951605150698 1.355555777453324 0.736249105369356
1.256492545929273 1.338028659589006 0.794295781269561
1.238793480263199 1.319181068979832 0.851558583130145
1.219871874993455 1.299031605922235 0.907980999479093
1.199746403460008 1.277600155503579 0.963507348203431
1.178436927073486 1.254907867977977 1.018082831500743
1.155964475714356 1.230977137893543 1.071653589957993
1.132351226978978 1.205831581991680 1.124166755704261
1.107620484292993 1.179496015900203 1.175570504584946
1.081796653913652 1.151996429643311 1.225814107305953
1.054905220843791 1.123359961992576 1.274847979497379
1.026972723681208 1.093614873684246 1.322623730647304
0.998026728428272 1.062790519529313 1.369094211857377
0.968095801287603 1.030917319443860 1.414213562373095
0.937209480470687 0.998026728428272 1.457937254842823
0.905398247047217 0.964151205524952 1.500222139260919
0.872693494863967 0.929324181785164 1.541026485551579
0.839127499562849 0.893580027276624 1.580310024751381
0.804733386728753 0.856954017164384 1.618033988749895
0.769545099198595 0.819482296898517 1.654161148549124
0.733597363563834 0.781201846542906 1.688655851004030
0.696925655899518 0.742150444280400 1.721484054007887
0.659566166753684 0.702366629130299 1.752613360087727
0.621555765431652 0.661889662914996 1.782013048376736
0.582931963610476 0.620759491513304 1.809654104932039
0.543732878319445 0.579016705438690 1.835509251367962
0.503997194323179 0.536702499781342 1.859552971776503
0.463764125944435 0.493858633553587 1.881761537908451
0.423073378364304 0.450527388478791 1.902113032590307
