ply
format ascii 1.0
element vertex 861
property double x
property double y
property double z
end_header
0.366693060759516 -0.370836355789738 -1.927801293228641
0.621982008980420 -0.366874076003428 -1.862337823512109
0.832676209707037 -0.365951845077803 -1.779123416419226
-0.859841732819055 -0.143585792371315 -1.797333430025049
-0.620725059830661 -0.139027940960576 -1.893546828389678
-0.368484230068069 -0.124160577032075 -1.959285846756882
-0.104933340466329 -0.104933340466329 -1.992072711690389
0.101816508571289 -0.105545411381704 -1.992171448044082
0.368484230068069 -0.124160577032075 -1.959285846756882
0.620725059830661 -0.139027940960576 -1.893546828389678
0.859841732819055 -0.143585792371315 -1.797333430025049
-0.866079795283536 0.097638338812494 -1.796569913598190
-0.627402616541014 0.104270955720432 -1.892911053394081
-0.369690072237986 0.098821683760223 -1.959969569109002
-0.106122170513500 0.098879493900964 -1.992264488069677
0.052000422192937 0.052000422192937 -1.996075642728032
0.369155664912682 0.110051420551158 -1.959666555793858
0.624540806522292 0.119166806537637 -1.893183528392194
0.863554865238389 0.116236117633922 -1.796878955961442
-0.832676209707037 0.365951845077803 -1.779123416419226
-0.627790676074725 0.367045638479655 -1.860443765936956
-0.370836355789738 0.366693060759516 -1.927801293228641
-0.124160577032075 0.368484230068069 -1.959285846756883
0.110051420551158 0.369155664912682 -1.959666555793858
0.366799991908167 0.366799991908167 -1.928604051373589
0.621982008980420 0.366874076003428 -1.862337823512109
0.832676209707037 0.365951845077803 -1.779123416419226
-0.796504989708132 0.541304232037981 -1.752613360087727
-0.610111161963414 0.610111161963414 -1.800981786783110
-0.366874076003428 0.621982008980420 -1.862337823512108
-0.139027940960576 0.620725059830661 -1.893546828389678
0.119166806537637 0.624540806522292 -1.893183528392193
0.366874076003428 0.621982008980420 -1.862337823512108
0.610111161963414 0.610111161963414 -1.800981786783109
0.796504989708132 0.541304232037981 -1.752613360087727
-0.541304232037981 0.796504989708132 -1.752613360087727
-0.365951845077803 0.832676209707037 -1.779123416419225
-0.143585792371315 0.859841732819055 -1.797333430025049
0.116236117633922 0.863554865238389 -1.796878955961442
0.365951845077803 0.832676209707037 -1.779123416419226
0.541304232037981 0.796504989708132 -1.752613360087727
-0.368818178134923 -1.269480495826417 -1.500222139260919
-0.162560631718843 -1.286799901324542 -1.520624312406249
0.121920473789132 -1.289783889761492 -1.520624312406249
0.368818178134923 -1.269480495826416 -1.500222139260919
-0.810245409266019 -1.044562087465264 -1.500222139260919
-0.611215227499648 -1.096926023554598 -1.553480867645250
-0.375472899260925 -1.123902823635804 -1.607018120789002
-0.140571268084511 -1.112736164885657 -1.652529013412463
0.105428451063383 -1.115316513116937 -1.652529013412464
0.375472899260925 -1.123902823635804 -1.607018120789002
0.611215227499647 -1.096926023554598 -1.553480867645250
0.810245409266019 -1.044562087465264 -1.500222139260919
-1.044562087465264 -0.810245409266020 -1.500222139260919
-0.869697479573128 -0.869697479573128 -1.573584328166551
-0.640123667136882 -0.896036246352014 -1.666174250140086
-0.388186674883665 -0.954334688195834 -1.712104567435356
0.388186674883665 -0.954334688195834 -1.712104567435356
0.640123667136882 -0.896036246352014 -1.666174250140086
0.869697479573128 -0.869697479573128 -1.573584328166551
1.044562087465264 -0.810245409266019 -1.500222139260919
-1.096926023554598 -0.611215227499648 -1.553480867645250
-0.896036246352013 -0.640123667136882 -1.666174250140086
-0.719538050089959 -0.719538050089959 -1.721484054007887
0.719538050089959 -0.719538050089959 -1.721484054007887
0.896036246352014 -0.640123667136882 -1.666174250140086
1.096926023554598 -0.611215227499648 -1.553480867645250
-1.269480495826416 -0.368818178134923 -1.500222139260919
-1.123902823635804 -0.375472899260925 -1.607018120789002
-0.954334688195834 -0.388186674883666 -1.712104567435356
0.954334688195834 -0.388186674883665 -1.712104567435356
1.123902823635804 -0.375472899260925 -1.607018120789003
1.269480495826416 -0.368818178134923 -1.500222139260919
-1.286799901324542 -0.162560631718843 -1.520624312406249
-1.112736164885657 -0.140571268084511 -1.652529013412463
1.112736164885657 -0.140571268084511 -1.652529013412463
1.286799901324542 -0.162560631718843 -1.520624312406249
-1.291574282823662 0.097536379031306 -1.520624312406249
-1.116864722055706 0.084342760850707 -1.652529013412463
1.115316513116937 0.105428451063383 -1.652529013412463
1.289783889761492 0.121920473789132 -1.520624312406249
-1.269480495826416 0.368818178134923 -1.500222139260919
-1.123902823635804 0.375472899260925 -1.607018120789002
-0.954334688195834 0.388186674883666 -1.712104567435356
0.954334688195834 0.388186674883665 -1.712104567435356
1.123902823635804 0.375472899260925 -1.607018120789002
1.269480495826416 0.368818178134923 -1.500222139260919
-1.096926023554598 0.611215227499648 -1.553480867645250
-0.896036246352013 0.640123667136882 -1.666174250140086
-0.719538050089959 0.719538050089959 -1.721484054007887
0.719538050089959 0.719538050089959 -1.721484054007887
0.896036246352014 0.640123667136882 -1.666174250140086
1.096926023554598 0.611215227499648 -1.553480867645251
-1.044562087465264 0.810245409266020 -1.500222139260919
-0.869697479573128 0.869697479573128 -1.573584328166551
-0.640123667136882 0.896036246352014 -1.666174250140086
-0.388186674883665 0.954334688195834 -1.712104567435356
0.388186674883665 0.954334688195834 -1.712104567435356
0.640123667136882 0.896036246352013 -1.666174250140086
0.869697479573128 0.869697479573128 -1.573584328166551
1.044562087465264 0.810245409266019 -1.500222139260919
-0.810245409266019 1.044562087465264 -1.500222139260919
-0.611215227499648 1.096926023554598 -1.553480867645251
-0.375472899260925 1.123902823635804 -1.607018120789002
-0.140571268084511 1.112736164885657 -1.652529013412464
0.105428451063383 1.115316513116937 -1.652529013412463
0.375472899260925 1.123902823635804 -1.607018120789003
0.611215227499647 1.096926023554598 -1.553480867645251
0.810245409266019 1.044562087465264 -1.500222139260919
-0.368818178134923 1.269480495826417 -1.500222139260919
-0.162560631718843 1.286799901324542 -1.520624312406249
0.121920473789132 1.289783889761492 -1.520624312406249
0.368818178134923 1.269480495826416 -1.500222139260919
-0.288759568674074 -1.513730669792553 -1.274847979497379
-0.144951843039316 -1.533430326613531 -1.274847979497379
0.072475921519658 -1.527027319509890 -1.286791917284860
0.288759568674074 -1.513730669792553 -1.274847979497379
-0.814791251683782 -1.283905571161896 -1.298735855072342
-0.613847255993698 -1.338696815524932 -1.348838512132933
-0.366952892228235 -1.401395269179867 -1.374378731296897
-0.135013293996352 -1.428291459901214 -1.390967189930150
0.098191486542802 -1.424325155298455 -1.397180231683136
0.366952892228235 -1.401395269179866 -1.374378731296897
0.613847255993698 -1.338696815524932 -1.348838512132933
0.814791251683781 -1.283905571161896 -1.298735855072342
-1.074713195050455 -1.074713195050455 -1.298735855072342
-0.887691173331998 -1.144404564883784 -1.374574930492636
-0.664349518391427 -1.208447287788434 -1.447006331725391
0.664349518391427 -1.208447287788434 -1.447006331725391
0.887691173331998 -1.144404564883784 -1.374574930492636
1.074713195050455 -1.074713195050455 -1.298735855072342
-1.283905571161895 -0.814791251683782 -1.298735855072342
-1.144404564883784 -0.887691173331999 -1.374574930492636
-0.967618104449479 -0.967618104449479 -1.457937254842823
0.967618104449479 -0.967618104449479 -1.457937254842823
1.144404564883784 -0.887691173331998 -1.374574930492636
1.283905571161896 -0.814791251683781 -1.298735855072342
-1.338696815524932 -0.613847255993698 -1.348838512132933
-1.208447287788434 -0.664349518391427 -1.447006331725391
1.208447287788434 -0.664349518391427 -1.447006331725391
1.338696815524932 -0.613847255993698 -1.348838512132932
-1.513730669792553 -0.288759568674075 -1.274847979497379
-1.401395269179866 -0.366952892228235 -1.374378731296897
1.401395269179866 -0.366952892228235 -1.374378731296897
1.513730669792553 -0.288759568674074 -1.274847979497379
-1.533430326613531 -0.144951843039316 -1.274847979497379
-1.428291459901213 -0.135013293996353 -1.390967189930150
1.428291459901214 -0.135013293996352 -1.390967189930150
1.533430326613531 -0.144951843039316 -1.274847979497379
-1.524892983808677 0.048317281013105 -1.290773229880687
-1.422058695525450 0.077150453712201 -1.400730541256271
1.424325155298455 0.098191486542802 -1.397180231683136
1.527027319509890 0.072475921519658 -1.286791917284860
-1.513730669792553 0.288759568674075 -1.274847979497379
-1.401395269179866 0.366952892228235 -1.374378731296897
1.401395269179866 0.366952892228235 -1.374378731296897
1.513730669792553 0.288759568674074 -1.274847979497379
-1.338696815524932 0.613847255993698 -1.348838512132932
-1.208447287788434 0.664349518391427 -1.447006331725391
1.208447287788434 0.664349518391427 -1.447006331725391
1.338696815524932 0.613847255993698 -1.348838512132933
-1.283905571161895 0.814791251683782 -1.298735855072342
-1.144404564883784 0.887691173331999 -1.374574930492636
-0.967618104449479 0.967618104449479 -1.457937254842823
0.967618104449479 0.967618104449479 -1.457937254842823
1.144404564883784 0.887691173331998 -1.374574930492636
1.283905571161896 0.814791251683781 -1.298735855072342
-1.074713195050455 1.074713195050455 -1.298735855072342
-0.887691173331998 1.144404564883784 -1.374574930492636
-0.664349518391427 1.208447287788434 -1.447006331725391
0.664349518391427 1.208447287788434 -1.447006331725391
0.887691173331998 1.144404564883784 -1.374574930492636
1.074713195050455 1.074713195050455 -1.298735855072342
-0.814791251683782 1.283905571161896 -1.298735855072342
-0.613847255993698 1.338696815524932 -1.348838512132933
-0.366952892228235 1.401395269179866 -1.374378731296897
-0.135013293996352 1.428291459901214 -1.390967189930150
0.098191486542802 1.424325155298455 -1.397180231683136
0.366952892228235 1.401395269179866 -1.374378731296897
0.613847255993698 1.338696815524932 -1.348838512132933
0.814791251683781 1.283905571161896 -1.298735855072342
-0.288759568674074 1.513730669792553 -1.274847979497379
-0.144951843039316 1.533430326613531 -1.274847979497379
0.072475921519658 1.527027319509890 -1.286791917284860
0.288759568674074 1.513730669792553 -1.274847979497379
-0.829331267925816 -1.508547976116103 -1.018082831500743
-0.608539293490548 -1.568344594376234 -1.077012586707742
-0.382620351505136 -1.596762975033725 -1.135996682499891
-0.155439980049623 -1.644383226722027 -1.123057557810779
0.103626653366415 -1.647098488952173 -1.123057557810779
0.371949474369240 -1.602028539256097 -1.132399062310341
0.597685364141493 -1.565394311797373 -1.086868378495462
0.829331267925815 -1.508547976116103 -1.018082831500743
-1.083681369785071 -1.309945750077600 -1.050013768032896
-0.878720996277444 -1.384642729393703 -1.139207515704631
-0.661961782794598 -1.465003261070380 -1.187841368725278
0.661961782794598 -1.465003261070380 -1.187841368725278
0.878720996277444 -1.384642729393704 -1.139207515704631
1.083681369785070 -1.309945750077600 -1.050013768032897
-1.309945750077600 -1.083681369785071 -1.050013768032896
-1.145758468779911 -1.145758468779912 -1.166431594907342
1.145758468779911 -1.145758468779911 -1.166431594907342
1.309945750077600 -1.083681369785071 -1.050013768032897
-1.508547976116103 -0.829331267925816 -1.018082831500743
-1.384642729393704 -0.878720996277445 -1.139207515704631
1.384642729393704 -0.878720996277444 -1.139207515704631
1.508547976116103 -0.829331267925815 -1.018082831500743
-1.568344594376234 -0.608539293490548 -1.077012586707742
-1.465003261070380 -0.661961782794598 -1.187841368725278
1.465003261070380 -0.661961782794598 -1.187841368725278
1.568344594376234 -0.608539293490548 -1.077012586707742
-1.596762975033725 -0.382620351505136 -1.135996682499891
1.596762975033725 -0.382620351505136 -1.135996682499891
-1.644383226722028 -0.155439980049623 -1.123057557810779
1.644383226722028 -0.155439980049623 -1.123057557810779
-1.648456120067246 0.077719990024812 -1.123057557810779
1.647098488952172 0.103626653366415 -1.123057557810779
-1.602028539256097 0.371949474369240 -1.132399062310340
1.602028539256097 0.371949474369239 -1.132399062310340
-1.565394311797373 0.597685364141494 -1.086868378495462
-1.465003261070380 0.661961782794598 -1.187841368725278
1.465003261070380 0.661961782794598 -1.187841368725278
1.565394311797373 0.597685364141493 -1.086868378495462
-1.508547976116103 0.829331267925816 -1.018082831500743
-1.384642729393704 0.878720996277445 -1.139207515704631
1.384642729393704 0.878720996277444 -1.139207515704631
1.508547976116103 0.829331267925815 -1.018082831500743
-1.309945750077600 1.083681369785071 -1.050013768032896
-1.145758468779911 1.145758468779911 -1.166431594907342
1.145758468779911 1.145758468779911 -1.166431594907342
1.309945750077600 1.083681369785071 -1.050013768032897
-1.083681369785071 1.309945750077600 -1.050013768032896
-0.878720996277445 1.384642729393703 -1.139207515704631
-0.661961782794598 1.465003261070380 -1.187841368725278
0.661961782794598 1.465003261070380 -1.187841368725278
0.878720996277444 1.384642729393704 -1.139207515704631
1.083681369785071 1.309945750077600 -1.050013768032896
-0.829331267925816 1.508547976116103 -1.018082831500743
-0.608539293490548 1.568344594376234 -1.077012586707742
-0.382620351505136 1.596762975033725 -1.135996682499891
-0.155439980049623 1.644383226722027 -1.123057557810779
0.103626653366415 1.647098488952173 -1.123057557810779
0.371949474369240 1.602028539256097 -1.132399062310340
0.597685364141493 1.565394311797373 -1.086868378495462
0.829331267925815 1.508547976116103 -1.018082831500743
-0.384693342594533 -1.772338007248965 -0.839937945655701
-0.170163465658152 -1.800141434911579 -0.851278454626266
0.102098079394892 -1.798063837423394 -0.862501343983983
0.384693342594533 -1.772338007248965 -0.839937945655701
-0.867769596193868 -1.578467035672463 -0.862501343983983
-0.623106713746789 -1.676644168780931 -0.888688085818655
-0.402477612688229 -1.715049793063398 -0.944998565295318
-0.164854101510859 -1.743974229115617 -0.963507348203431
0.164854101510859 -1.743974229115617 -0.963507348203431
0.402477612688229 -1.715049793063398 -0.944998565295318
0.623106713746790 -1.676644168780930 -0.888688085818655
0.867769596193868 -1.578467035672463 -0.862501343983983
-1.297260602759140 -1.297260602759140 -0.794295781269561
-1.132286957674421 -1.385137078203317 -0.887066577725194
-0.939097199573177 -1.479780402529987 -0.963507348203431
0.939097199573177 -1.479780402529987 -0.963507348203431
1.132286957674421 -1.385137078203318 -0.887066577725194
1.297260602759140 -1.297260602759139 -0.794295781269561
-1.385137078203317 -1.132286957674421 -0.887066577725194
1.385137078203318 -1.132286957674421 -0.887066577725194
-1.578467035672463 -0.867769596193869 -0.862501343983983
-1.479780402529986 -0.939097199573178 -0.963507348203431
1.479780402529987 -0.939097199573177 -0.963507348203431
1.578467035672463 -0.867769596193868 -0.862501343983983
-1.676644168780930 -0.623106713746790 -0.888688085818655
1.676644168780930 -0.623106713746790 -0.888688085818655
-1.772338007248965 -0.384693342594533 -0.839937945655701
-1.715049793063398 -0.402477612688229 -0.944998565295318
1.715049793063398 -0.402477612688228 -0.944998565295318
1.772338007248965 -0.384693342594533 -0.839937945655701
-1.800141434911579 -0.170163465658153 -0.851278454626266
-1.743974229115617 -0.164854101510860 -0.963507348203431
1.743974229115617 -0.164854101510859 -0.963507348203431
1.800141434911580 -0.170163465658152 -0.851278454626267
-1.797173438499886 0.072927199567780 -0.867311153708719
-1.743974229115617 0.164854101510860 -0.963507348203431
1.743974229115617 0.164854101510859 -0.963507348203431
1.798063837423394 0.102098079394891 -0.862501343983983
-1.772338007248965 0.384693342594533 -0.839937945655701
-1.715049793063398 0.402477612688229 -0.944998565295318
1.715049793063398 0.402477612688228 -0.944998565295318
1.772338007248965 0.384693342594533 -0.839937945655701
-1.676644168780930 0.623106713746790 -0.888688085818655
1.676644168780930 0.623106713746790 -0.888688085818655
-1.578467035672463 0.867769596193869 -0.862501343983983
-1.479780402529986 0.939097199573178 -0.963507348203431
1.479780402529987 0.939097199573177 -0.963507348203431
1.578467035672463 0.867769596193868 -0.862501343983983
-1.385137078203317 1.132286957674421 -0.887066577725194
1.385137078203318 1.132286957674421 -0.887066577725194
-1.297260602759140 1.297260602759140 -0.794295781269561
-1.132286957674421 1.385137078203317 -0.887066577725194
-0.939097199573177 1.479780402529987 -0.963507348203431
0.939097199573177 1.479780402529987 -0.963507348203431
1.132286957674421 1.385137078203318 -0.887066577725194
1.297260602759140 1.297260602759139 -0.794295781269561
-0.867769596193868 1.578467035672463 -0.862501343983983
-0.623106713746789 1.676644168780931 -0.888688085818655
-0.402477612688229 1.715049793063398 -0.944998565295318
-0.164854101510859 1.743974229115617 -0.963507348203431
0.164854101510859 1.743974229115617 -0.963507348203431
0.402477612688229 1.715049793063398 -0.944998565295318
0.623106713746790 1.676644168780930 -0.888688085818655
0.867769596193868 1.578467035672463 -0.862501343983983
-0.384693342594533 1.772338007248965 -0.839937945655701
-0.170163465658152 1.800141434911579 -0.851278454626267
0.102098079394892 1.798063837423394 -0.862501343983983
0.384693342594533 1.772338007248965 -0.839937945655701
-0.624106505044408 -1.791343770190593 -0.627626224586108
-0.412306134180696 -1.844551611230825 -0.647435286672073
-0.177871359251001 -1.881682431850674 -0.647435286672073
0.118580906167334 -1.884789530702878 -0.647435286672073
0.412306134180696 -1.844551611230825 -0.647435286672073
0.624106505044408 -1.791343770190593 -0.627626224586108
-1.071802853390587 -1.562264732614453 -0.634747598286747
-0.873443466208261 -1.671399402099318 -0.657303488749549
-0.688634865165235 -1.739293128708801 -0.706862472929970
0.688634865165235 -1.739293128708801 -0.706862472929970
0.873443466208261 -1.671399402099319 -0.657303488749549
1.071802853390586 -1.562264732614453 -0.634747598286747
-1.336481760963700 -1.336481760963700 -0.647435286672073
-1.205371141191020 -1.457043414876207 -0.647435286672073
1.205371141191020 -1.457043414876206 -0.647435286672073
1.336481760963700 -1.336481760963700 -0.647435286672073
-1.562264732614452 -1.071802853390587 -0.634747598286747
-1.457043414876207 -1.205371141191020 -0.647435286672073
1.457043414876207 -1.205371141191020 -0.647435286672073
1.562264732614453 -1.071802853390586 -0.634747598286747
-1.671399402099318 -0.873443466208261 -0.657303488749549
1.671399402099318 -0.873443466208261 -0.657303488749549
-1.791343770190593 -0.624106505044408 -0.627626224586108
-1.739293128708801 -0.688634865165235 -0.706862472929970
1.739293128708801 -0.688634865165235 -0.706862472929970
1.791343770190592 -0.624106505044408 -0.627626224586108
-1.844551611230825 -0.412306134180696 -0.647435286672073
1.844551611230825 -0.412306134180696 -0.647435286672073
-1.881682431850674 -0.177871359251002 -0.647435286672073
1.881682431850674 -0.177871359251001 -0.647435286672073
-1.886343080128980 0.088935679625501 -0.647435286672073
1.884789530702878 0.118580906167334 -0.647435286672073
-1.844551611230825 0.412306134180696 -0.647435286672073
1.844551611230825 0.412306134180696 -0.647435286672073
-1.791343770190592 0.624106505044408 -0.627626224586108
-1.739293128708801 0.688634865165235 -0.706862472929970
1.739293128708801 0.688634865165235 -0.706862472929970
1.791343770190593 0.624106505044408 -0.627626224586108
-1.671399402099318 0.873443466208261 -0.657303488749549
1.671399402099318 0.873443466208261 -0.657303488749549
-1.562264732614452 1.071802853390587 -0.634747598286747
-1.457043414876207 1.205371141191020 -0.647435286672073
1.457043414876206 1.205371141191020 -0.647435286672073
1.562264732614453 1.071802853390586 -0.634747598286747
-1.336481760963700 1.336481760963700 -0.647435286672073
-1.205371141191020 1.457043414876207 -0.647435286672073
1.205371141191020 1.457043414876207 -0.647435286672073
1.336481760963700 1.336481760963700 -0.647435286672073
-1.071802853390586 1.562264732614453 -0.634747598286747
-0.873443466208261 1.671399402099318 -0.657303488749549
-0.688634865165235 1.739293128708801 -0.706862472929970
0.688634865165235 1.739293128708801 -0.706862472929970
0.873443466208260 1.671399402099319 -0.657303488749549
1.071802853390586 1.562264732614453 -0.634747598286747
-0.624106505044408 1.791343770190593 -0.627626224586108
-0.412306134180696 1.844551611230825 -0.647435286672073
-0.177871359251001 1.881682431850674 -0.647435286672073
0.118580906167334 1.884789530702878 -0.647435286672073
0.412306134180696 1.844551611230825 -0.647435286672073
0.624106505044408 1.791343770190593 -0.627626224586108
-0.835649802417313 -1.775846225014234 -0.374392856700663
-0.664491217890113 -1.845695361177888 -0.374392856700663
-0.427924538372083 -1.914424334985768 -0.374392856700663
-0.184609233254195 -1.952961693409259 -0.374392856700663
0.123072822169464 -1.956186491033597 -0.374392856700663
0.427924538372083 -1.914424334985768 -0.374392856700663
0.664491217890114 -1.845695361177887 -0.374392856700663
0.835649802417313 -1.775846225014234 -0.374392856700663
-1.258738274886248 -1.521553197850284 -0.312766008793507
-1.115486660627063 -1.611680508359213 -0.380019549981792
-0.945507145491097 -1.719871112904301 -0.374392856700663
0.945507145491096 -1.719871112904301 -0.374392856700663
1.115486660627062 -1.611680508359213 -0.380019549981792
1.258738274886248 -1.521553197850285 -0.312766008793507
-1.521553197850284 -1.258738274886248 -0.312766008793507
-1.387108493400329 -1.387108493400329 -0.374392856700663
-1.234796285940020 -1.492612304758493 -0.497379774329710
1.234796285940020 -1.492612304758493 -0.497379774329710
1.387108493400329 -1.387108493400329 -0.374392856700663
1.521553197850285 -1.258738274886248 -0.312766008793507
-1.611680508359213 -1.115486660627063 -0.380019549981792
-1.492612304758492 -1.234796285940020 -0.497379774329710
1.492612304758493 -1.234796285940020 -0.497379774329710
1.611680508359213 -1.115486660627062 -0.380019549981792
-1.775846225014233 -0.835649802417313 -0.374392856700663
-1.719871112904301 -0.945507145491097 -0.374392856700663
1.719871112904301 -0.945507145491096 -0.374392856700663
1.775846225014234 -0.835649802417313 -0.374392856700663
-1.845695361177888 -0.664491217890114 -0.374392856700663
1.845695361177888 -0.664491217890113 -0.374392856700663
-1.914424334985768 -0.427924538372083 -0.374392856700663
1.914424334985768 -0.427924538372082 -0.374392856700663
-1.952961693409259 -0.184609233254196 -0.374392856700663
1.952961693409259 -0.184609233254195 -0.374392856700663
-1.957798889845766 0.092304616627098 -0.374392856700663
1.956186491033597 0.123072822169463 -0.374392856700663
-1.914424334985768 0.427924538372083 -0.374392856700663
1.914424334985768 0.427924538372082 -0.374392856700663
-1.845695361177888 0.664491217890114 -0.374392856700663
1.845695361177888 0.664491217890113 -0.374392856700663
-1.775846225014233 0.835649802417313 -0.374392856700663
-1.719871112904300 0.945507145491097 -0.374392856700663
1.719871112904301 0.945507145491096 -0.374392856700663
1.775846225014234 0.835649802417313 -0.374392856700663
-1.611680508359213 1.115486660627063 -0.380019549981792
-1.492612304758492 1.234796285940020 -0.497379774329710
1.492612304758493 1.234796285940020 -0.497379774329710
1.611680508359213 1.115486660627062 -0.380019549981792
-1.521553197850284 1.258738274886248 -0.312766008793507
-1.387108493400329 1.387108493400329 -0.374392856700663
-1.234796285940020 1.492612304758493 -0.497379774329710
1.234796285940020 1.492612304758493 -0.497379774329710
1.387108493400329 1.387108493400329 -0.374392856700663
1.521553197850284 1.258738274886248 -0.312766008793507
-1.258738274886248 1.521553197850285 -0.312766008793507
-1.115486660627063 1.611680508359213 -0.380019549981792
-0.945507145491097 1.719871112904301 -0.374392856700663
0.945507145491096 1.719871112904301 -0.374392856700663
1.115486660627062 1.611680508359213 -0.380019549981792
1.258738274886248 1.521553197850284 -0.312766008793507
-0.835649802417313 1.775846225014234 -0.374392856700663
-0.664491217890113 1.845695361177888 -0.374392856700663
-0.427924538372082 1.914424334985768 -0.374392856700663
-0.184609233254195 1.952961693409258 -0.374392856700663
0.123072822169464 1.956186491033597 -0.374392856700663
0.427924538372083 1.914424334985768 -0.374392856700663
0.664491217890114 1.845695361177888 -0.374392856700663
0.835649802417313 1.775846225014234 -0.374392856700663
-0.877956967161575 -1.792053915738736 -0.109860175502042
-0.675583050127374 -1.876504110422578 -0.125539727950638
-0.388889987584928 -1.955230777975137 -0.117705115614839
-0.156357503099430 -1.987450362387160 -0.141208952622236
0.089347144628246 -1.990855993763258 -0.134493570620122
0.388889987584928 -1.955230777975136 -0.117705115614839
0.675583050127374 -1.876504110422578 -0.125539727950638
0.877956967161575 -1.792053915738736 -0.109860175502043
-1.271913812078823 -1.537479686421206 -0.125539727950638
-1.121025961782672 -1.649539610637305 -0.125539727950638
-0.960418677515491 -1.746995088963288 -0.156898832847828
0.960418677515490 -1.746995088963289 -0.156898832847828
1.121025961782671 -1.649539610637306 -0.125539727950638
1.271913812078823 -1.537479686421206 -0.125539727950638
-1.537479686421206 -1.271913812078823 -0.125539727950638
-1.410262410697427 -1.410262410697428 -0.125539727950638
1.410262410697427 -1.410262410697427 -0.125539727950638
1.537479686421206 -1.271913812078823 -0.125539727950638
-1.649539610637305 -1.121025961782672 -0.125539727950638
1.649539610637306 -1.121025961782672 -0.125539727950638
-1.792053915738736 -0.877956967161576 -0.109860175502043
-1.746995088963288 -0.960418677515491 -0.156898832847828
1.746995088963289 -0.960418677515490 -0.156898832847828
1.792053915738736 -0.877956967161576 -0.109860175502042
-1.876504110422578 -0.675583050127374 -0.125539727950638
1.876504110422578 -0.675583050127374 -0.125539727950638
-1.955230777975136 -0.388889987584929 -0.117705115614839
1.955230777975136 -0.388889987584928 -0.117705115614839
-1.987450362387160 -0.156357503099431 -0.141208952622236
1.987450362387160 -0.156357503099430 -0.141208952622236
-1.992218246313697 0.062543001239772 -0.131807417819277
1.990855993763258 0.089347144628246 -0.134493570620122
-1.955230777975136 0.388889987584929 -0.117705115614839
1.955230777975136 0.388889987584928 -0.117705115614839
-1.876504110422578 0.675583050127374 -0.125539727950638
1.876504110422578 0.675583050127374 -0.125539727950638
-1.792053915738736 0.877956967161576 -0.109860175502042
-1.746995088963288 0.960418677515491 -0.156898832847828
1.746995088963289 0.960418677515490 -0.156898832847828
1.792053915738736 0.877956967161576 -0.109860175502042
-1.649539610637305 1.121025961782672 -0.125539727950638
1.649539610637306 1.121025961782672 -0.125539727950638
-1.537479686421206 1.271913812078823 -0.125539727950638
-1.410262410697427 1.410262410697428 -0.125539727950638
1.410262410697428 1.410262410697427 -0.125539727950638
1.537479686421206 1.271913812078823 -0.125539727950638
-1.271913812078823 1.537479686421206 -0.125539727950638
-1.121025961782672 1.649539610637305 -0.125539727950638
-0.960418677515491 1.746995088963288 -0.156898832847828
0.960418677515490 1.746995088963289 -0.156898832847828
1.121025961782671 1.649539610637305 -0.125539727950638
1.271913812078823 1.537479686421206 -0.125539727950638
-0.877956967161576 1.792053915738736 -0.109860175502042
-0.675583050127374 1.876504110422578 -0.125539727950638
-0.388889987584928 1.955230777975136 -0.117705115614839
-0.156357503099430 1.987450362387159 -0.141208952622235
0.089347144628246 1.990855993763258 -0.134493570620122
0.388889987584928 1.955230777975136 -0.117705115614839
0.675583050127374 1.876504110422578 -0.125539727950638
0.877956967161575 1.792053915738736 -0.109860175502042
-0.887815633329980 -1.788413854662452 0.073240117001362
-0.675972674360437 -1.877586333362785 0.094154795962978
-0.384902615573563 -1.957074222740426 0.085603720447155
-0.150202210291270 -1.989170981281036 0.112967162097788
0.083445672384039 -1.992449490355483 0.104606110482317
0.384902615573563 -1.957074222740426 0.085603720447155
0.675972674360437 -1.877586333362785 0.094154795962978
0.887815633329979 -1.788413854662452 0.073240117001362
-1.272647353933462 -1.538366386203799 0.094154795962978
-1.121672483154872 -1.650490937947220 0.094154795962978
-0.960418677515491 -1.746995088963288 0.156898832847828
0.960418677515490 -1.746995088963289 0.156898832847828
1.121672483154871 -1.650490937947220 0.094154795962978
1.272647353933462 -1.538366386203799 0.094154795962978
-1.538366386203799 -1.272647353933462 0.094154795962978
-1.411075741360596 -1.411075741360596 0.094154795962978
1.411075741360596 -1.411075741360595 0.094154795962978
1.538366386203799 -1.272647353933462 0.094154795962978
-1.650490937947220 -1.121672483154872 0.094154795962978
1.650490937947220 -1.121672483154871 0.094154795962978
-1.788413854662452 -0.887815633329980 0.073240117001362
-1.746995088963288 -0.960418677515491 0.156898832847828
1.746995088963289 -0.960418677515490 0.156898832847828
1.788413854662452 -0.887815633329979 0.073240117001362
-1.877586333362785 -0.675972674360437 0.094154795962978
1.877586333362785 -0.675972674360437 0.094154795962978
-1.957074222740426 -0.384902615573563 0.085603720447155
1.957074222740426 -0.384902615573563 0.085603720447155
-1.989170981281036 -0.150202210291270 0.112967162097788
1.989170981281036 -0.150202210291270 0.112967162097788
-1.993710455384117 0.057770080881258 0.101390321399444
1.991505676649918 0.093876381432044 0.117681874292607
2.000000000000000 0.000000000000000 0.000000000000000
-1.957074222740426 0.384902615573563 0.085603720447155
1.957074222740426 0.384902615573563 0.085603720447155
-1.877586333362785 0.675972674360437 0.094154795962978
1.877586333362785 0.675972674360437 0.094154795962978
-1.788413854662452 0.887815633329980 0.073240117001362
-1.746995088963288 0.960418677515491 0.156898832847828
1.746995088963289 0.960418677515490 0.156898832847828
1.788413854662452 0.887815633329979 0.073240117001362
-1.650490937947220 1.121672483154871 0.094154795962978
1.650490937947220 1.121672483154871 0.094154795962978
-1.538366386203799 1.272647353933462 0.094154795962978
-1.411075741360595 1.411075741360596 0.094154795962978
1.411075741360595 1.411075741360595 0.094154795962978
1.538366386203799 1.272647353933462 0.094154795962978
-1.272647353933462 1.538366386203799 0.094154795962978
-1.121672483154871 1.650490937947220 0.094154795962978
-0.960418677515491 1.746995088963288 0.156898832847828
0.960418677515490 1.746995088963289 0.156898832847828
1.121672483154871 1.650490937947220 0.094154795962978
1.272647353933462 1.538366386203799 0.094154795962978
-0.887815633329980 1.788413854662452 0.073240117001362
-0.675972674360437 1.877586333362785 0.094154795962978
-0.384902615573563 1.957074222740426 0.085603720447155
-0.150202210291270 1.989170981281036 0.112967162097788
0.093876381432044 1.991505676649918 0.117681874292607
0.384902615573563 1.957074222740426 0.085603720447155
0.675972674360437 1.877586333362785 0.094154795962978
0.887815633329979 1.788413854662452 0.073240117001362
0.000000000000000 2.000000000000000 0.000000000000000
-0.835649802417313 -1.775846225014234 0.374392856700663
-0.664491217890113 -1.845695361177888 0.374392856700663
-0.427924538372083 -1.914424334985768 0.374392856700663
-0.184609233254195 -1.952961693409258 0.374392856700663
0.123072822169464 -1.956186491033597 0.374392856700663
0.427924538372083 -1.914424334985768 0.374392856700663
0.664491217890114 -1.845695361177888 0.374392856700663
0.835649802417313 -1.775846225014234 0.374392856700663
-1.258738274886248 -1.521553197850285 0.312766008793507
-1.115486660627063 -1.611680508359213 0.380019549981792
-0.945507145491096 -1.719871112904301 0.374392856700663
0.945507145491096 -1.719871112904301 0.374392856700663
1.115486660627062 -1.611680508359213 0.380019549981792
1.258738274886248 -1.521553197850285 0.312766008793507
-1.521553197850284 -1.258738274886248 0.312766008793507
-1.387108493400329 -1.387108493400329 0.374392856700663
-1.234796285940020 -1.492612304758493 0.497379774329710
1.234796285940020 -1.492612304758493 0.497379774329710
1.387108493400329 -1.387108493400329 0.374392856700663
1.521553197850285 -1.258738274886248 0.312766008793507
-1.611680508359213 -1.115486660627063 0.380019549981792
-1.492612304758492 -1.234796285940020 0.497379774329710
1.492612304758493 -1.234796285940020 0.497379774329710
1.611680508359213 -1.115486660627063 0.380019549981792
-1.775846225014233 -0.835649802417314 0.374392856700663
-1.719871112904300 -0.945507145491097 0.374392856700663
1.719871112904301 -0.945507145491096 0.374392856700663
1.775846225014234 -0.835649802417313 0.374392856700663
-1.845695361177888 -0.664491217890114 0.374392856700663
1.845695361177888 -0.664491217890113 0.374392856700663
-1.914424334985768 -0.427924538372083 0.374392856700663
1.914424334985768 -0.427924538372082 0.374392856700663
-1.952961693409258 -0.184609233254196 0.374392856700663
1.952961693409259 -0.184609233254195 0.374392856700663
-1.957798889845766 0.092304616627098 0.374392856700663
1.956186491033597 0.123072822169463 0.374392856700663
-1.914424334985768 0.427924538372083 0.374392856700663
1.914424334985768 0.427924538372082 0.374392856700663
-1.845695361177888 0.664491217890114 0.374392856700663
1.845695361177888 0.664491217890113 0.374392856700663
-1.775846225014233 0.835649802417314 0.374392856700663
-1.719871112904300 0.945507145491097 0.374392856700663
1.719871112904301 0.945507145491096 0.374392856700663
1.775846225014234 0.835649802417313 0.374392856700663
-1.611680508359213 1.115486660627063 0.380019549981792
-1.492612304758492 1.234796285940020 0.497379774329710
1.492612304758493 1.234796285940020 0.497379774329710
1.611680508359213 1.115486660627062 0.380019549981792
-1.521553197850284 1.258738274886248 0.312766008793507
-1.387108493400329 1.387108493400329 0.374392856700663
-1.234796285940020 1.492612304758493 0.497379774329710
1.234796285940020 1.492612304758493 0.497379774329710
1.387108493400329 1.387108493400329 0.374392856700663
1.521553197850285 1.258738274886248 0.312766008793507
-1.258738274886248 1.521553197850285 0.312766008793507
-1.115486660627063 1.611680508359213 0.380019549981792
-0.945507145491096 1.719871112904300 0.374392856700663
0.945507145491096 1.719871112904301 0.374392856700663
1.115486660627062 1.611680508359213 0.380019549981792
1.258738274886248 1.521553197850285 0.312766008793507
-0.835649802417313 1.775846225014234 0.374392856700663
-0.664491217890113 1.845695361177888 0.374392856700663
-0.427924538372082 1.914424334985768 0.374392856700663
-0.184609233254195 1.952961693409259 0.374392856700663
0.123072822169464 1.956186491033597 0.374392856700663
0.427924538372083 1.914424334985768 0.374392856700663
0.664491217890114 1.845695361177888 0.374392856700663
0.835649802417313 1.775846225014234 0.374392856700663
-0.624106505044408 -1.791343770190593 0.627626224586108
-0.412306134180696 -1.844551611230825 0.647435286672073
-0.177871359251001 -1.881682431850674 0.647435286672073
0.118580906167334 -1.884789530702878 0.647435286672073
0.412306134180696 -1.844551611230825 0.647435286672073
0.624106505044408 -1.791343770190593 0.627626224586108
-1.071802853390587 -1.562264732614453 0.634747598286747
-0.873443466208261 -1.671399402099318 0.657303488749549
-0.688634865165235 -1.739293128708801 0.706862472929970
0.688634865165235 -1.739293128708801 0.706862472929970
0.873443466208261 -1.671399402099319 0.657303488749549
1.071802853390586 -1.562264732614453 0.634747598286747
-1.336481760963700 -1.336481760963700 0.647435286672073
-1.205371141191020 -1.457043414876207 0.647435286672073
1.205371141191020 -1.457043414876207 0.647435286672073
1.336481760963700 -1.336481760963700 0.647435286672073
-1.562264732614452 -1.071802853390587 0.634747598286747
-1.457043414876207 -1.205371141191020 0.647435286672073
1.457043414876207 -1.205371141191020 0.647435286672073
1.562264732614453 -1.071802853390586 0.634747598286747
-1.671399402099318 -0.873443466208261 0.657303488749549
1.671399402099318 -0.873443466208261 0.657303488749549
-1.791343770190593 -0.624106505044408 0.627626224586108
-1.739293128708801 -0.688634865165235 0.706862472929970
1.739293128708801 -0.688634865165235 0.706862472929970
1.791343770190593 -0.624106505044408 0.627626224586108
-1.844551611230825 -0.412306134180696 0.647435286672073
1.844551611230825 -0.412306134180696 0.647435286672073
-1.881682431850674 -0.177871359251002 0.647435286672073
1.881682431850674 -0.177871359251001 0.647435286672073
-1.886343080128980 0.088935679625501 0.647435286672073
1.884789530702878 0.118580906167334 0.647435286672073
-1.844551611230825 0.412306134180696 0.647435286672073
1.844551611230826 0.412306134180696 0.647435286672073
-1.791343770190593 0.624106505044408 0.627626224586108
-1.739293128708801 0.688634865165235 0.706862472929970
1.739293128708801 0.688634865165235 0.706862472929970
1.791343770190592 0.624106505044408 0.627626224586108
-1.671399402099318 0.873443466208261 0.657303488749549
1.671399402099318 0.873443466208261 0.657303488749549
-1.562264732614452 1.071802853390587 0.634747598286747
-1.457043414876206 1.205371141191020 0.647435286672073
1.457043414876207 1.205371141191020 0.647435286672073
1.562264732614453 1.071802853390586 0.634747598286747
-1.336481760963700 1.336481760963700 0.647435286672073
-1.205371141191020 1.457043414876207 0.647435286672073
1.205371141191020 1.457043414876206 0.647435286672073
1.336481760963700 1.336481760963700 0.647435286672073
-1.071802853390586 1.562264732614453 0.634747598286747
-0.873443466208261 1.671399402099318 0.657303488749549
-0.688634865165235 1.739293128708801 0.706862472929970
0.688634865165235 1.739293128708801 0.706862472929970
0.873443466208261 1.671399402099319 0.657303488749549
1.071802853390586 1.562264732614453 0.634747598286747
-0.624106505044408 1.791343770190593 0.627626224586108
-0.412306134180696 1.844551611230825 0.647435286672073
-0.177871359251001 1.881682431850674 0.647435286672073
0.118580906167334 1.884789530702878 0.647435286672073
0.412306134180696 1.844551611230825 0.647435286672073
0.624106505044408 1.791343770190593 0.627626224586108
-0.384693342594533 -1.772338007248965 0.839937945655701
-0.170163465658152 -1.800141434911579 0.851278454626266
0.102098079394891 -1.798063837423394 0.862501343983983
0.384693342594533 -1.772338007248965 0.839937945655701
-0.867769596193868 -1.578467035672463 0.862501343983983
-0.623106713746789 -1.676644168780931 0.888688085818655
-0.402477612688229 -1.715049793063398 0.944998565295318
-0.164854101510859 -1.743974229115617 0.963507348203431
0.164854101510859 -1.743974229115617 0.963507348203431
0.402477612688229 -1.715049793063398 0.944998565295318
0.623106713746790 -1.676644168780930 0.888688085818655
0.867769596193868 -1.578467035672463 0.862501343983983
-1.297260602759140 -1.297260602759140 0.794295781269561
-1.132286957674421 -1.385137078203317 0.887066577725194
-0.939097199573177 -1.479780402529987 0.963507348203431
0.939097199573177 -1.479780402529987 0.963507348203431
1.132286957674421 -1.385137078203318 0.887066577725194
1.297260602759140 -1.297260602759139 0.794295781269561
-1.385137078203317 -1.132286957674421 0.887066577725194
1.385137078203318 -1.132286957674421 0.887066577725193
-1.578467035672463 -0.867769596193869 0.862501343983983
-1.479780402529986 -0.939097199573178 0.963507348203431
1.479780402529987 -0.939097199573177 0.963507348203431
1.578467035672463 -0.867769596193868 0.862501343983983
-1.676644168780930 -0.623106713746790 0.888688085818655
1.676644168780930 -0.623106713746790 0.888688085818655
-1.772338007248965 -0.384693342594533 0.839937945655701
-1.715049793063398 -0.402477612688229 0.944998565295318
1.715049793063398 -0.402477612688228 0.944998565295318
1.772338007248965 -0.384693342594533 0.839937945655701
-1.800141434911579 -0.170163465658153 0.851278454626266
-1.743974229115617 -0.164854101510860 0.963507348203431
1.743974229115617 -0.164854101510859 0.963507348203431
1.800141434911580 -0.170163465658152 0.851278454626267
-1.797173438499886 0.072927199567780 0.867311153708719
-1.743974229115617 0.164854101510860 0.963507348203431
1.743974229115617 0.164854101510859 0.963507348203431
1.798063837423394 0.102098079394891 0.862501343983983
-1.772338007248965 0.384693342594533 0.839937945655701
-1.715049793063398 0.402477612688229 0.944998565295318
1.715049793063398 0.402477612688228 0.944998565295318
1.772338007248965 0.384693342594533 0.839937945655701
-1.676644168780930 0.623106713746790 0.888688085818655
1.676644168780931 0.623106713746790 0.888688085818655
-1.578467035672463 0.867769596193869 0.862501343983983
-1.479780402529986 0.939097199573178 0.963507348203431
1.479780402529987 0.939097199573177 0.963507348203431
1.578467035672463 0.867769596193868 0.862501343983983
-1.385137078203317 1.132286957674421 0.887066577725194
1.385137078203318 1.132286957674421 0.887066577725194
-1.297260602759140 1.297260602759140 0.794295781269561
-1.132286957674421 1.385137078203317 0.887066577725194
-0.939097199573177 1.479780402529987 0.963507348203431
0.939097199573177 1.479780402529987 0.963507348203431
1.132286957674421 1.385137078203318 0.887066577725194
1.297260602759140 1.297260602759139 0.794295781269561
-0.867769596193868 1.578467035672463 0.862501343983983
-0.623106713746789 1.676644168780931 0.888688085818655
-0.402477612688229 1.715049793063398 0.944998565295318
-0.164854101510859 1.743974229115617 0.963507348203431
0.164854101510859 1.743974229115617 0.963507348203431
0.402477612688229 1.715049793063398 0.944998565295318
0.623106713746790 1.676644168780930 0.888688085818655
0.867769596193868 1.578467035672463 0.862501343983983
-0.384693342594533 1.772338007248965 0.839937945655701
-0.170163465658152 1.800141434911579 0.851278454626266
0.102098079394891 1.798063837423394 0.862501343983983
0.384693342594533 1.772338007248965 0.839937945655701
-0.829331267925816 -1.508547976116103 1.018082831500743
-0.608539293490548 -1.568344594376234 1.077012586707742
-0.382620351505136 -1.596762975033725 1.135996682499891
-0.155439980049623 -1.644383226722027 1.123057557810779
0.103626653366415 -1.647098488952173 1.123057557810779
0.371949474369240 -1.602028539256097 1.132399062310340
0.597685364141493 -1.565394311797373 1.086868378495462
0.829331267925815 -1.508547976116103 1.018082831500743
-1.083681369785070 -1.309945750077600 1.050013768032896
-0.878720996277445 -1.384642729393703 1.139207515704631
-0.661961782794598 -1.465003261070380 1.187841368725278
0.661961782794598 -1.465003261070380 1.187841368725278
0.878720996277444 -1.384642729393704 1.139207515704631
1.083681369785070 -1.309945750077600 1.050013768032897
-1.309945750077600 -1.083681369785071 1.050013768032897
-1.145758468779912 -1.145758468779912 1.166431594907342
1.145758468779911 -1.145758468779911 1.166431594907342
1.309945750077600 -1.083681369785070 1.050013768032896
-1.508547976116103 -0.829331267925816 1.018082831500743
-1.384642729393703 -0.878720996277445 1.139207515704631
1.384642729393704 -0.878720996277444 1.139207515704631
1.508547976116103 -0.829331267925815 1.018082831500743
-1.568344594376234 -0.608539293490548 1.077012586707742
-1.465003261070380 -0.661961782794598 1.187841368725278
1.465003261070380 -0.661961782794598 1.187841368725278
1.568344594376234 -0.608539293490548 1.077012586707742
-1.596762975033725 -0.382620351505136 1.135996682499891
1.596762975033725 -0.382620351505136 1.135996682499891
-1.644383226722027 -0.155439980049623 1.123057557810779
1.644383226722028 -0.155439980049623 1.123057557810779
-1.648456120067245 0.077719990024812 1.123057557810780
1.647098488952173 0.103626653366415 1.123057557810779
-1.602028539256097 0.371949474369240 1.132399062310340
1.602028539256097 0.371949474369239 1.132399062310340
-1.565394311797373 0.597685364141494 1.086868378495462
-1.465003261070380 0.661961782794598 1.187841368725278
1.465003261070380 0.661961782794598 1.187841368725278
1.565394311797373 0.597685364141493 1.086868378495462
-1.508547976116103 0.829331267925816 1.018082831500743
-1.384642729393703 0.878720996277445 1.139207515704631
1.384642729393704 0.878720996277444 1.139207515704631
1.508547976116103 0.829331267925815 1.018082831500743
-1.309945750077600 1.083681369785071 1.050013768032896
-1.145758468779911 1.145758468779912 1.166431594907342
1.145758468779911 1.145758468779911 1.166431594907342
1.309945750077600 1.083681369785071 1.050013768032897
-1.083681369785070 1.309945750077600 1.050013768032896
-0.878720996277444 1.384642729393703 1.139207515704631
-0.661961782794598 1.465003261070380 1.187841368725278
0.661961782794598 1.465003261070380 1.187841368725278
0.878720996277444 1.384642729393704 1.139207515704631
1.083681369785070 1.309945750077600 1.050013768032896
-0.829331267925816 1.508547976116103 1.018082831500743
-0.608539293490548 1.568344594376234 1.077012586707742
-0.382620351505136 1.596762975033725 1.135996682499891
-0.155439980049623 1.644383226722027 1.123057557810779
0.103626653366415 1.647098488952173 1.123057557810779
0.371949474369240 1.602028539256097 1.132399062310340
0.597685364141493 1.565394311797374 1.086868378495462
0.829331267925815 1.508547976116103 1.018082831500743
-0.288759568674074 -1.513730669792553 1.274847979497379
-0.144951843039316 -1.533430326613531 1.274847979497379
0.072475921519658 -1.527027319509890 1.286791917284860
0.288759568674074 -1.513730669792553 1.274847979497379
-0.814791251683782 -1.283905571161896 1.298735855072342
-0.613847255993698 -1.338696815524932 1.348838512132933
-0.366952892228235 -1.401395269179866 1.374378731296897
-0.135013293996352 -1.428291459901213 1.390967189930150
0.098191486542802 -1.424325155298455 1.397180231683136
0.366952892228235 -1.401395269179866 1.374378731296897
0.613847255993698 -1.338696815524932 1.348838512132933
0.814791251683781 -1.283905571161896 1.298735855072342
-1.074713195050455 -1.074713195050455 1.298735855072342
-0.887691173331998 -1.144404564883784 1.374574930492636
-0.664349518391427 -1.208447287788434 1.447006331725391
0.664349518391427 -1.208447287788434 1.447006331725391
0.887691173331998 -1.144404564883784 1.374574930492636
1.074713195050455 -1.074713195050455 1.298735855072342
-1.283905571161895 -0.814791251683782 1.298735855072342
-1.144404564883783 -0.887691173331999 1.374574930492636
-0.967618104449479 -0.967618104449479 1.457937254842823
0.967618104449479 -0.967618104449479 1.457937254842823
1.144404564883784 -0.887691173331998 1.374574930492636
1.283905571161896 -0.814791251683781 1.298735855072342
-1.338696815524932 -0.613847255993698 1.348838512132932
-1.208447287788434 -0.664349518391427 1.447006331725391
1.208447287788434 -0.664349518391427 1.447006331725391
1.338696815524932 -0.613847255993698 1.348838512132932
-1.513730669792553 -0.288759568674075 1.274847979497379
-1.401395269179866 -0.366952892228235 1.374378731296897
1.401395269179866 -0.366952892228235 1.374378731296897
1.513730669792553 -0.288759568674074 1.274847979497379
-1.533430326613531 -0.144951843039316 1.274847979497379
-1.428291459901213 -0.135013293996353 1.390967189930150
1.428291459901214 -0.135013293996352 1.390967189930150
1.533430326613531 -0.144951843039316 1.274847979497379
-1.524892983808676 0.048317281013105 1.290773229880687
-1.422058695525450 0.077150453712201 1.400730541256271
1.424325155298455 0.098191486542802 1.397180231683136
1.527027319509890 0.072475921519658 1.286791917284860
-1.513730669792553 0.288759568674075 1.274847979497379
-1.401395269179866 0.366952892228235 1.374378731296897
